//X Y Z R G B
723
0.1327413171529770 -2.4879226684570313 3.6123707294464111 255 0 0
0.1164074465632439 -2.3832917213439941 3.4889919757843018 255 0 0
0.3232273161411285 -2.1190667152404785 5.1462140083312988 255 0 0
-1.0858355760574341 -3.2709567546844482 4.0054445266723633 255 0 0
0.6263013482093811 -2.7364723682403564 2.6474268436431885 255 0 0
0.4198311269283295 -3.5168998241424561 4.5135793685913086 255 0 0
-0.5264648199081421 -3.1180837154388428 3.9305305480957031 255 0 0
0.3082870841026306 -2.3782072067260742 3.5649199485778809 255 0 0
0.1071675494313240 -2.7240822315216064 3.7045624256134033 255 0 0
0.4668062329292297 -2.8654158115386963 3.9327743053436279 255 0 0
0.2623252570629120 -2.3878755569458008 3.5465912818908691 255 0 0
0.2960481345653534 -2.3929531574249268 3.8068490028381348 255 0 0
-0.5148484706878662 -3.2904422283172607 4.0693287849426270 255 0 0
0.4655387699604034 -2.6976964473724365 3.5845651626586914 255 0 0
0.5301961898803711 -2.4972119331359863 3.2702867984771729 255 0 0
0.0568710826337337 -2.2888703346252441 3.6240515708923340 255 0 0
0.3536336719989777 -2.5363636016845703 3.7882759571075439 255 0 0
0.4477662742137909 -2.2934007644653320 4.6862649917602539 255 0 0
0.4346286058425903 -2.9699683189392090 4.1444277763366699 255 0 0
-0.4432171285152435 -2.8222095966339111 4.9551835060119629 255 0 0
-0.3226104080677032 -2.9263408184051514 3.8019516468048096 255 0 0
0.4251717925071716 -2.7113664150238037 3.6416156291961670 255 0 0
0.4725507497787476 -3.2165203094482422 4.1430954933166504 255 0 0
0.2625949680805206 -2.4168295860290527 3.7452001571655273 255 0 0
0.4189536869525909 -2.4978842735290527 3.4046978950500488 255 0 0
0.2240630388259888 -2.8043577671051025 3.8272683620452881 255 0 0
0.3419784903526306 -3.6554582118988037 4.9014816284179688 255 0 0
-1.2844147682189941 -3.0725581645965576 3.8767726421356201 255 0 0
-0.1435889601707458 -2.8689627647399902 3.8303055763244629 255 0 0
0.1015629544854164 -3.4249079227447510 3.9209871292114258 255 0 0
-0.0346651300787926 -2.8364477157592773 3.6044855117797852 255 0 0
0.1844068616628647 -3.5346302986145020 4.3390164375305176 255 0 0
0.0880247876048088 -2.6683511734008789 3.6836538314819336 255 0 0
0.4054688811302185 -2.5690481662750244 3.5830707550048828 255 0 0
0.1323051154613495 -2.8536646366119385 3.6324906349182129 255 0 0
0.3203813135623932 -2.7978892326354980 3.7945885658264160 255 0 0
-0.0821451172232628 -3.1986963748931885 4.1627411842346191 255 0 0
0.1801426559686661 -2.9925413131713867 3.9260675907135010 255 0 0
0.1876518279314041 -2.2975122928619385 3.5435657501220703 255 0 0
0.0793181732296944 -3.0083429813385010 4.0014939308166504 255 0 0
0.4304361641407013 -3.4682176113128662 4.4794545173645020 255 0 0
0.5203325152397156 -3.3387279510498047 4.0716109275817871 255 0 0
-0.2909787893295288 -2.9813451766967773 3.8613910675048828 255 0 0
0.2204404175281525 -2.9439287185668945 3.8566870689392090 255 0 0
0.1022596731781960 -2.7547135353088379 3.7977108955383301 255 0 0
0.1756327003240585 -2.6844367980957031 3.7009632587432861 255 0 0
-0.1820320338010788 -2.6651558876037598 3.6071493625640869 255 0 0
0.2609756290912628 -2.8903334140777588 3.8703579902648926 255 0 0
0.0026941751129925 -2.5379774570465088 3.7574532032012939 255 0 0
-0.1294775009155273 -3.2904162406921387 4.0662102699279785 255 0 0
0.4797264635562897 -2.9424216747283936 3.8151059150695801 255 0 0
0.2868037819862366 -2.4421162605285645 3.6798279285430908 255 0 0
0.4187405407428741 -2.5143153667449951 3.8865394592285156 255 0 0
0.3743258714675903 -3.4149336814880371 4.0833439826965332 255 0 0
0.1582784503698349 -2.6163778305053711 3.8223757743835449 255 0 0
0.0015957389259711 -3.1017658710479736 3.6277041435241699 255 0 0
0.3583848476409912 -2.1607978343963623 5.1058955192565918 255 0 0
0.4123090803623199 -2.5286905765533447 3.6480047702789307 255 0 0
0.7116659879684448 -3.0886781215667725 3.5755708217620850 255 0 0
-0.1925817728042603 -2.6632435321807861 3.6829068660736084 255 0 0
0.3274239301681519 -2.4561817646026611 3.5576744079589844 255 0 0
0.2050978690385818 -2.8118135929107666 3.8290381431579590 255 0 0
-0.1195493116974831 -3.0955579280853271 4.2356834411621094 255 0 0
0.3118483126163483 -2.0264649391174316 5.1138515472412109 255 0 0
-0.1048731282353401 -3.1346299648284912 4.0101208686828613 255 0 0
-0.0966392457485199 -2.4497060775756836 3.7004582881927490 255 0 0
-0.2226111441850662 -3.2713012695312500 4.0823683738708496 255 0 0
-0.1661724150180817 -2.5430140495300293 3.6020486354827881 255 0 0
-0.0922981128096581 -2.9521753787994385 3.6464245319366455 255 0 0
-0.2942220270633698 -2.9980604648590088 3.8490095138549805 255 0 0
0.4627006649971008 -2.5327389240264893 4.3771963119506836 255 0 0
0.4619225859642029 -2.8835220336914063 3.8719644546508789 255 0 0
0.3253961503505707 -2.7441787719726563 3.8384640216827393 255 0 0
0.3708097040653229 -3.0258226394653320 3.8287274837493896 255 0 0
-0.2126641422510147 -2.9373965263366699 3.8869104385375977 255 0 0
0.2270508557558060 -2.4383065700531006 3.6224565505981445 255 0 0
0.0062636043876410 -3.5829298496246338 4.1886968612670898 255 0 0
-0.2363227009773254 -2.9351975917816162 3.9409399032592773 255 0 0
0.3288419842720032 -2.5257284641265869 3.6732082366943359 255 0 0
0.4855842888355255 -3.4458100795745850 4.2443647384643555 255 0 0
0.2046417444944382 -3.3177332878112793 4.1097512245178223 255 0 0
-0.2782025337219238 -3.0371608734130859 3.8083107471466064 255 0 0
-0.1780585199594498 -3.2571368217468262 4.0740685462951660 255 0 0
-0.0993177965283394 -2.8402919769287109 3.6473762989044189 255 0 0
-0.3466856479644775 -3.1307275295257568 4.0986676216125488 255 0 0
-0.2267428189516068 -2.8923285007476807 3.8398272991180420 255 0 0
-0.1387518942356110 -2.9798557758331299 3.9238500595092773 255 0 0
0.4010956287384033 -2.6884732246398926 4.0740504264831543 255 0 0
0.4173167347908020 -3.1183092594146729 4.2766685485839844 255 0 0
-0.0126442005857825 -3.0425162315368652 3.9101810455322266 255 0 0
0.4420247077941895 -2.7741789817810059 3.8722510337829590 255 0 0
0.1475518792867661 -2.8192429542541504 3.6546270847320557 255 0 0
-0.2196655422449112 -3.0801584720611572 3.9311277866363525 255 0 0
0.4602732956409454 -3.2395632266998291 4.1481423377990723 255 0 0
-0.0805150568485260 -3.1259169578552246 4.0439639091491699 255 0 0
0.4093947410583496 -2.4123423099517822 3.6984429359436035 255 0 0
0.4969857931137085 -2.3508810997009277 4.6640019416809082 255 0 0
0.3343082964420319 -3.4549462795257568 4.2399225234985352 255 0 0
0.1632035523653030 -2.0409650802612305 5.0505862236022949 255 0 0
0.2544286251068115 -2.1856062412261963 5.1099758148193359 255 0 0
0.4644069671630859 -3.2756528854370117 4.2159519195556641 255 0 0
0.2632957696914673 -2.7956316471099854 3.7487180233001709 255 0 0
0.2754082679748535 -2.4263477325439453 4.8154869079589844 255 0 0
0.4823526740074158 -2.8059415817260742 3.7344074249267578 255 0 0
0.0585985705256462 -2.5569717884063721 3.4397096633911133 255 0 0
0.4396272301673889 -2.6309485435485840 3.7447664737701416 255 0 0
0.2168043851852417 -3.3095889091491699 4.1050453186035156 255 0 0
0.5001336932182312 -2.9293529987335205 3.8022420406341553 255 0 0
0.5360254645347595 -2.4996898174285889 3.2346332073211670 255 0 0
0.4087343811988831 -2.5865466594696045 3.6249842643737793 255 0 0
0.2414858341217041 -2.5330100059509277 4.3727474212646484 255 0 0
0.4612943530082703 -3.3096721172332764 4.3053326606750488 255 0 0
0.2390975952148438 -2.3489871025085449 3.9770555496215820 255 0 0
-0.1075688600540161 -3.2828471660614014 4.0786595344543457 255 0 0
0.3727395534515381 -2.4931941032409668 4.0702314376831055 255 0 0
0.4145736098289490 -2.5057344436645508 3.7643055915832520 255 0 0
-0.2473882436752319 -3.1366591453552246 3.9258029460906982 255 0 0
0.4956867098808289 -2.5789961814880371 3.4807100296020508 255 0 0
0.3180143535137177 -2.6563527584075928 3.7236261367797852 255 0 0
-0.0754860863089561 -3.1477856636047363 4.0279364585876465 255 0 0
0.4458793699741364 -2.5141639709472656 3.4763429164886475 255 0 0
0.3265930712223053 -2.5003812313079834 3.6838839054107666 255 0 0
0.3995110690593719 -2.6607446670532227 3.7621593475341797 255 0 0
0.1623763889074326 -2.2898974418640137 3.5428094863891602 255 0 0
0.4659048914909363 -3.0384058952331543 4.1158108711242676 255 0 0
0.4198805093765259 -2.5646028518676758 4.2990088462829590 255 0 0
0.3633506894111633 -3.1310498714447021 3.9873294830322266 255 0 0
-0.3457783162593842 -3.1943771839141846 3.9089348316192627 255 0 0
-0.4027600586414337 -3.0047204494476318 3.8655891418457031 255 0 0
0.3075019121170044 -2.1975047588348389 5.0588288307189941 255 0 0
0.0814037099480629 -2.3778264522552490 3.5258259773254395 255 0 0
0.4016869962215424 -3.5005755424499512 4.5322895050048828 255 0 0
0.5051869153976440 -2.7358012199401855 3.4464795589447021 255 0 0
-0.2209534794092178 -2.5604684352874756 3.7074615955352783 255 0 0
-0.0282899849116802 -3.0479044914245605 4.2958760261535645 255 0 0
-1.0652792453765869 -3.5036039352416992 4.2190876007080078 255 0 0
0.3665005564689636 -2.6092066764831543 3.7179644107818604 255 0 0
0.4270218908786774 -2.3471696376800537 3.5602216720581055 255 0 0
0.3538800776004791 -2.7737166881561279 3.3631782531738281 255 0 0
-0.0128135504201055 -3.0621190071105957 3.9522764682769775 255 0 0
0.2007012963294983 -1.8665773868560791 4.7601304054260254 255 0 0
0.2372568547725677 -2.8085830211639404 3.8220481872558594 255 0 0
0.0811725929379463 -2.5894114971160889 3.5929393768310547 255 0 0
0.4135008454322815 -3.2099549770355225 4.0712327957153320 255 0 0
0.3902918994426727 -3.1564588546752930 3.9995534420013428 255 0 0
0.0718456655740738 -2.6990768909454346 3.7075321674346924 255 0 0
0.4535768926143646 -2.6224353313446045 4.0993976593017578 255 0 0
0.2448395639657974 -2.3894705772399902 3.5862290859222412 255 0 0
0.4705984890460968 -2.6387267112731934 3.7642862796783447 255 0 0
0.2016469091176987 -2.9655795097351074 3.8790495395660400 255 0 0
0.2174071669578552 -2.9593334197998047 3.8595762252807617 255 0 0
0.1255579739809036 -2.5325202941894531 3.6274344921112061 255 0 0
0.4498825073242188 -2.5562803745269775 3.8190062046051025 255 0 0
0.3567153811454773 -2.5797185897827148 3.4955193996429443 255 0 0
0.4701197445392609 -2.8772242069244385 3.9376180171966553 255 0 0
0.4696383476257324 -3.2143249511718750 4.1321067810058594 255 0 0
0.3085275590419769 -2.5109834671020508 3.6096456050872803 255 0 0
-0.2079321295022964 -3.1276462078094482 3.8351089954376221 255 0 0
-0.1168913394212723 -3.1382384300231934 4.0261764526367188 255 0 0
0.0420538075268269 -2.7895221710205078 3.7867190837860107 255 0 0
0.5581846237182617 -2.5269589424133301 3.0668461322784424 255 0 0
-0.0312552042305470 -2.6085820198059082 3.5686221122741699 255 0 0
0.4399683773517609 -2.5512051582336426 3.6488521099090576 255 0 0
0.3323552310466766 -2.5048117637634277 3.6339683532714844 255 0 0
0.1264590322971344 -1.9345525503158569 5.1379971504211426 255 0 0
0.0474805831909180 -2.7452793121337891 3.7920465469360352 255 0 0
0.4988515675067902 -2.3489954471588135 4.6833071708679199 255 0 0
0.0742850899696350 -2.7381222248077393 3.7978053092956543 255 0 0
0.4419283568859100 -3.1474380493164063 4.1917514801025391 255 0 0
0.4640955328941345 -2.8769731521606445 3.8429448604583740 255 0 0
0.3349717259407043 -2.5658502578735352 4.3330297470092773 255 0 0
0.2965025007724762 -2.4027619361877441 3.6299583911895752 255 0 0
0.4579917788505554 -2.6001234054565430 3.5643761157989502 255 0 0
0.2352455407381058 -2.6876230239868164 3.7253468036651611 255 0 0
-1.5687456130981445 -3.3628826141357422 4.0401320457458496 255 0 0
0.4605032503604889 -2.8833389282226563 4.0054144859313965 255 0 0
-0.2199798375368118 -3.1262729167938232 3.8612446784973145 255 0 0
0.4164687097072601 -3.3526904582977295 3.9318714141845703 255 0 0
0.3856945931911469 -2.9538922309875488 3.4281439781188965 255 0 0
0.1871601194143295 -2.7272832393646240 3.8259737491607666 255 0 0
1.5464028120040894 0.0062521114014089 0.8868309259414673 255 0 0
-0.1205777302384377 -2.6813414096832275 3.8536062240600586 255 0 0
0.3902863562107086 -2.8995156288146973 3.5115182399749756 255 0 0
-0.6447098851203918 -3.4765665531158447 4.1445240974426270 255 0 0
0.1837519258260727 -3.0037841796875000 3.8981065750122070 255 0 0
0.4161652624607086 -2.4280033111572266 4.3444137573242188 255 0 0
0.1846744269132614 -3.3079853057861328 4.1265406608581543 255 0 0
-0.8501325249671936 -3.1399242877960205 3.9347524642944336 255 0 0
-1.1961209774017334 -3.1163425445556641 3.8250660896301270 255 0 0
0.4307100474834442 -2.4101734161376953 3.6282052993774414 255 0 0
0.4374176859855652 -2.7487800121307373 4.0979094505310059 255 0 0
0.4713136255741119 -2.5522549152374268 3.6224772930145264 255 0 0
0.2967217564582825 -2.3680145740509033 4.7567505836486816 255 0 0
0.3397389650344849 -2.7533285617828369 4.1606030464172363 255 0 0
0.0492029264569283 -2.8757464885711670 3.8248939514160156 255 0 0
0.2373727858066559 -3.4316422939300537 4.2163939476013184 255 0 0
0.4556466341018677 -2.4485120773315430 3.5952556133270264 255 0 0
0.1751851290464401 -2.5170021057128906 3.5217978954315186 255 0 0
0.3095076084136963 -3.0902273654937744 4.0091900825500488 255 0 0
0.4376999139785767 -2.5385866165161133 3.6997687816619873 255 0 0
0.3792944550514221 -2.5257654190063477 3.6505563259124756 255 0 0
0.2495113462209702 -2.8587505817413330 3.8522701263427734 255 0 0
0.4791711866855621 -3.4302606582641602 4.2738461494445801 255 0 0
0.2012005895376205 -2.9389860630035400 3.9079642295837402 255 0 0
0.3413039445877075 -2.4946045875549316 3.3642728328704834 255 0 0
0.4363267123699188 -2.7207727432250977 3.7966825962066650 255 0 0
-0.0404929183423519 -3.2047288417816162 4.0346474647521973 255 0 0
0.1036627888679504 -1.7520606517791748 4.9631900787353516 255 0 0
0.0433515682816505 -3.0035743713378906 3.9210414886474609 255 0 0
0.3425432145595551 -2.7461075782775879 3.7062215805053711 255 0 0
0.3286485075950623 -3.4228739738464355 4.0927643775939941 255 0 0
-0.3184099197387695 -3.0221874713897705 3.5715391635894775 255 0 0
0.4561032354831696 -3.5889625549316406 4.4617047309875488 255 0 0
-0.1182907000184059 -3.1176848411560059 4.0121936798095703 255 0 0
-0.2330449521541595 -2.9204881191253662 3.9190051555633545 255 0 0
-0.1701259016990662 -3.1669714450836182 4.0235500335693359 255 0 0
0.0995821356773376 -2.0190131664276123 5.2571830749511719 255 0 0
0.4153441190719604 -2.5282254219055176 3.6228470802307129 255 0 0
-0.6250023245811462 -3.5153491497039795 4.2843580245971680 255 0 0
0.3777538836002350 -2.5152201652526855 3.6404047012329102 255 0 0
0.3110851049423218 -2.1913096904754639 5.2663083076477051 255 0 0
-0.0483000651001930 -2.8558993339538574 3.6465129852294922 255 0 0
-0.3655486702919006 -3.1174721717834473 3.9125659465789795 255 0 0
0.2663992643356323 -3.4352469444274902 4.2065753936767578 255 0 0
-0.1810627281665802 -3.2316946983337402 4.0515823364257813 255 0 0
-0.1224852651357651 -3.8663794994354248 4.7896299362182617 255 0 0
0.5418360233306885 -3.4560871124267578 3.9784517288208008 255 0 0
-0.6730172038078308 -3.3375489711761475 4.3191890716552734 255 0 0
-0.0928939506411552 -2.8008997440338135 4.0460247993469238 255 0 0
0.2326823920011520 -2.4475758075714111 3.7939040660858154 255 0 0
0.1318087577819824 -2.4833827018737793 3.6213357448577881 255 0 0
0.4649918675422668 -2.8342831134796143 4.0249238014221191 255 0 0
-0.2985415458679199 -2.9688258171081543 3.8206272125244141 255 0 0
-0.2095597237348557 -3.1165115833282471 3.8789312839508057 255 0 0
0.2987045347690582 -2.3021574020385742 3.7863628864288330 255 0 0
0.1453467756509781 -2.8726925849914551 3.9117765426635742 255 0 0
-0.9656128883361816 -3.2917544841766357 4.2282280921936035 255 0 0
0.4504624009132385 -3.2388451099395752 4.1986060142517090 255 0 0
0.3895857632160187 -2.5121893882751465 3.6298522949218750 255 0 0
0.5238538384437561 -3.1169953346252441 3.6875867843627930 255 0 0
-0.2146286815404892 -3.0779278278350830 3.9541940689086914 255 0 0
0.1047633588314056 -2.3924005031585693 4.9594860076904297 255 0 0
0.3878796696662903 -3.1993849277496338 4.0506138801574707 255 0 0
-0.1984003335237503 -3.0122110843658447 3.7781279087066650 255 0 0
0.4220599234104156 -2.8631770610809326 4.0193171501159668 255 0 0
0.2027144879102707 -2.5643596649169922 3.2913031578063965 255 0 0
0.2953883707523346 -2.4744396209716797 3.6022529602050781 255 0 0
0.5100446939468384 -2.5988745689392090 4.2500319480895996 255 0 0
0.2610387504100800 -2.7284116744995117 3.7705347537994385 255 0 0
0.4040056169033051 -2.6496608257293701 3.7608225345611572 255 0 0
-0.1879804283380508 -3.0253431797027588 3.8013944625854492 255 0 0
0.2527812123298645 -3.5873589515686035 4.2058930397033691 255 0 0
0.4486911892890930 -2.5139703750610352 3.3347780704498291 255 0 0
-1.1985119581222534 -3.2994775772094727 3.7702782154083252 255 0 0
0.1851082146167755 -3.0884802341461182 3.8290667533874512 255 0 0
0.4700768291950226 -2.7416629791259766 4.0883717536926270 255 0 0
0.4734697043895721 -2.5772447586059570 3.6790833473205566 255 0 0
0.4056300222873688 -3.0996141433715820 3.8263649940490723 255 0 0
0.3702093660831451 -2.7349481582641602 3.7536768913269043 255 0 0
0.3009397685527802 -2.4212036132812500 3.4015681743621826 255 0 0
0.3257888257503510 -2.5560803413391113 3.6394348144531250 255 0 0
-0.1827299445867538 -3.0182874202728271 3.8699235916137695 255 0 0
-1.0515464544296265 -3.5880544185638428 4.2655425071716309 255 0 0
0.4809536933898926 -3.3088645935058594 4.1916522979736328 255 0 0
0.2499644160270691 -2.7236206531524658 3.6993806362152100 255 0 0
-0.2872571647167206 -3.0730810165405273 3.8432741165161133 255 0 0
-0.1332172155380249 -3.1856908798217773 4.0131993293762207 255 0 0
0.1921406239271164 -2.7136759757995605 3.7951467037200928 255 0 0
-0.2525651752948761 -3.1310670375823975 3.7240228652954102 255 0 0
-0.5291029214859009 -3.2211918830871582 4.0115461349487305 255 0 0
0.1514293849468231 -2.9897618293762207 3.8852350711822510 255 0 0
-0.0726075842976570 -2.8295567035675049 3.6343216896057129 255 0 0
0.4113043248653412 -3.1880576610565186 4.2741751670837402 255 0 0
0.1582828015089035 -3.1120047569274902 3.8945081233978271 255 0 0
0.3034542202949524 -2.7221665382385254 3.8519401550292969 255 0 0
0.1172736063599586 -2.7431302070617676 3.7727692127227783 255 0 0
0.4661376774311066 -2.6881809234619141 4.1006240844726563 255 0 0
-0.3774609863758087 -2.8809149265289307 3.8712177276611328 255 0 0
-0.7845568656921387 -3.3315975666046143 4.3581848144531250 255 0 0
-0.0664201229810715 -2.3811793327331543 3.7240123748779297 255 0 0
0.5642371177673340 -2.5740618705749512 3.0692944526672363 255 0 0
-0.0065427720546722 -3.2341811656951904 4.0795545578002930 255 0 0
0.2519703805446625 -2.6945042610168457 3.7133066654205322 255 0 0
0.0273951236158609 -2.5040977001190186 3.6180171966552734 255 0 0
0.1684756428003311 -2.2060387134552002 5.1004390716552734 255 0 0
-0.1591222733259201 -3.1844220161437988 3.9406828880310059 255 0 0
0.3172228634357452 -3.4357116222381592 4.2242121696472168 255 0 0
0.3843196332454681 -2.5905857086181641 3.6721591949462891 255 0 0
-0.3488080203533173 -2.8519051074981689 3.7554166316986084 255 0 0
-0.0587310045957565 -2.7429184913635254 4.0952939987182617 255 0 0
0.1869617849588394 -2.9654676914215088 3.9018371105194092 255 0 0
0.2737011611461639 -2.7903697490692139 3.8014166355133057 255 0 0
0.2587964534759521 -2.8861091136932373 3.8303260803222656 255 0 0
0.4390608668327332 -2.6877892017364502 4.0852060317993164 255 0 0
0.0719264969229698 -2.7783455848693848 3.5810422897338867 255 0 0
-0.2444444894790649 -3.0824880599975586 4.0863013267517090 255 0 0
1.6066076755523682 0.1255059540271759 0.7300472259521484 255 0 0
0.0368062406778336 -3.1915733814239502 4.0790934562683105 255 0 0
0.3335150778293610 -3.1613206863403320 3.9278728961944580 255 0 0
0.3774478733539581 -2.4949443340301514 3.6118488311767578 255 0 0
-0.2222484499216080 -2.6480190753936768 3.6261181831359863 255 0 0
-0.3884741961956024 -3.1998927593231201 4.1493453979492188 255 0 0
0.3671609163284302 -2.6061964035034180 3.6880168914794922 255 0 0
-0.4534943997859955 -2.9413156509399414 3.7807104587554932 255 0 0
0.0892821252346039 -2.9957370758056641 3.8964762687683105 255 0 0
0.2435013949871063 -3.2361514568328857 3.8915750980377197 255 0 0
0.1750126034021378 -2.9963061809539795 3.9038512706756592 255 0 0
0.5021618008613586 -2.6532821655273438 3.6297357082366943 255 0 0
-0.0221672747284174 -2.8432044982910156 3.5919241905212402 255 0 0
0.3808265030384064 -2.6034841537475586 3.6823558807373047 255 0 0
0.0405709967017174 -3.0358543395996094 3.9464080333709717 255 0 0
-1.0706801414489746 -3.5403108596801758 4.2587294578552246 255 0 0
0.2567037045955658 -2.3664436340332031 3.5441467761993408 255 0 0
0.3709981441497803 -2.5908584594726563 3.6592674255371094 255 0 0
0.2812358438968658 -2.9615321159362793 3.8876252174377441 255 0 0
-0.9909752607345581 -3.4125998020172119 4.0515413284301758 255 0 0
-0.0838714614510536 -2.5793635845184326 3.5003013610839844 255 0 0
0.4413408041000366 -2.5514063835144043 3.8225805759429932 255 0 0
-1.3795828819274902 -3.2765090465545654 3.9938313961029053 255 0 0
0.1783117949962616 -2.9831438064575195 3.9628767967224121 255 0 0
0.3285447955131531 -2.6883418560028076 3.4341006278991699 255 0 0
-1.5787981748580933 -3.1309287548065186 4.0849342346191406 255 0 0
0.0510431528091431 -2.9761810302734375 3.9905226230621338 255 0 0
0.4659503698348999 -3.2863719463348389 4.1820211410522461 255 0 0
0.2465687096118927 -2.3039345741271973 4.8845558166503906 255 0 0
0.0486805960536003 -2.7823216915130615 3.7870693206787109 255 0 0
0.3634269237518311 -2.7460896968841553 3.6956400871276855 255 0 0
0.4034197926521301 -3.2015497684478760 4.0427298545837402 255 0 0
-0.0172816831618547 -2.8027853965759277 3.6207911968231201 255 0 0
0.3831813633441925 -2.5910298824310303 3.6637759208679199 255 0 0
-1.1852272748947144 -3.5401215553283691 4.2991318702697754 255 0 0
-0.1774829924106598 -2.6020183563232422 3.6866023540496826 255 0 0
0.4617047905921936 -3.0943005084991455 4.0093688964843750 255 0 0
-0.3290582299232483 -2.8199326992034912 3.7489171028137207 255 0 0
-0.9766263365745544 -2.9701490402221680 3.7809746265411377 255 0 0
0.2432735562324524 -2.6027262210845947 4.5342001914978027 255 0 0
0.1634207069873810 -2.6957724094390869 3.7269077301025391 255 0 0
-0.1944544911384583 -3.1852293014526367 3.9716393947601318 255 0 0
-0.0273198671638966 -2.7506477832794189 3.7862300872802734 255 0 0
0.1745228618383408 -2.5601038932800293 3.6038658618927002 255 0 0
0.2817505896091461 -3.1256766319274902 3.9558360576629639 255 0 0
-0.0409584976732731 -2.6927926540374756 3.9281766414642334 255 0 0
0.3616963028907776 -3.0639958381652832 3.9757535457611084 255 0 0
-0.1693735569715500 -3.2113006114959717 4.2156934738159180 255 0 0
0.2647973597049713 -2.5349984169006348 3.6513087749481201 255 0 0
0.3893349766731262 -2.5814583301544189 3.0513153076171875 255 0 0
-1.5812600851058960 -3.3793401718139648 4.0153250694274902 255 0 0
-0.0941510573029518 -3.1160185337066650 4.0631089210510254 255 0 0
-0.4936631321907043 -3.1957521438598633 4.0326809883117676 255 0 0
0.3993019163608551 -2.5749971866607666 3.6355705261230469 255 0 0
0.3048364818096161 -2.5258800983428955 3.9786374568939209 255 0 0
0.2891003191471100 -2.9241244792938232 3.3781411647796631 255 0 0
0.5577747225761414 -2.6074893474578857 4.0764160156250000 255 0 0
-0.2591628432273865 -2.9799313545227051 3.8001124858856201 255 0 0
0.0133639415726066 -2.7487597465515137 3.8130924701690674 255 0 0
-1.2361195087432861 -2.8663313388824463 3.7449905872344971 255 0 0
-0.5508936047554016 -3.2545056343078613 3.9973392486572266 255 0 0
0.0109212594106793 -2.4256050586700439 3.6068184375762939 255 0 0
0.2164989262819290 -3.0315046310424805 4.0273041725158691 255 0 0
0.1658509224653244 -2.7307481765747070 3.7534120082855225 255 0 0
0.1825480163097382 -2.3133716583251953 4.9157376289367676 255 0 0
0.3169626891613007 -2.3951344490051270 4.6375203132629395 255 0 0
-0.0251120403409004 -3.1924047470092773 4.0351366996765137 255 0 0
0.3650935888290405 -2.8190448284149170 3.5811836719512939 255 0 0
-0.2807033061981201 -3.0402920246124268 3.8171274662017822 255 0 0
0.3013949990272522 -3.4712915420532227 4.2314920425415039 255 0 0
-0.3755544126033783 -2.9206151962280273 3.5400278568267822 255 0 0
0.1931757181882858 -3.5081737041473389 4.2475609779357910 255 0 0
-0.1755632460117340 -2.9241459369659424 4.6162157058715820 255 0 0
-0.2901096940040588 -3.0889966487884521 3.8387422561645508 255 0 0
-1.2344852685928345 -3.4352443218231201 4.0386395454406738 255 0 0
-0.3968309760093689 -3.0842666625976563 3.9337203502655029 255 0 0
0.6264153718948364 -3.1299033164978027 3.6478996276855469 255 0 0
-0.2995054721832275 -2.9621660709381104 3.8306419849395752 255 0 0
0.4151414930820465 -2.5461232662200928 3.6506056785583496 255 0 0
0.2518827021121979 -2.6085166931152344 3.6508464813232422 255 0 0
0.0531871914863586 -3.6102385520935059 4.4334535598754883 255 0 0
0.4695165753364563 -2.4756040573120117 3.3987934589385986 255 0 0
-1.0228693485260010 -3.3638625144958496 3.5200958251953125 255 0 0
0.3274233043193817 -3.0420765876770020 3.9556899070739746 255 0 0
-1.3282344341278076 -3.5979127883911133 4.0422787666320801 255 0 0
0.3531183004379272 -3.1626226902008057 4.0985236167907715 255 0 0
0.2050438076257706 -2.8246955871582031 3.7855246067047119 255 0 0
-1.0217641592025757 -2.9948220252990723 3.8763484954833984 255 0 0
0.3289008438587189 -3.4373483657836914 4.2249279022216797 255 0 0
-0.1778001040220261 -2.9843125343322754 3.7348072528839111 255 0 0
-1.1459167003631592 -3.2477612495422363 4.1106052398681641 255 0 0
0.0202202610671520 -3.5406200885772705 6.0876612663269043 255 0 0
-0.5007826685905457 -3.2221240997314453 3.8036899566650391 255 0 0
0.3375842273235321 -2.3207073211669922 4.3802227973937988 255 0 0
-0.0400108769536018 -2.8295173645019531 3.6635353565216064 255 0 0
-1.1804717779159546 -2.9274346828460693 3.7818586826324463 255 0 0
-0.8201050162315369 -2.8088679313659668 3.7393221855163574 255 0 0
-0.3733604848384857 -2.9369351863861084 3.8509016036987305 255 0 0
0.4137713909149170 -2.2336862087249756 4.9341096878051758 255 0 0
0.4653371274471283 -3.1099214553833008 4.0826888084411621 255 0 0
0.0847364291548729 -2.8063490390777588 3.9440660476684570 255 0 0
0.1876344531774521 -2.2812645435333252 5.4228296279907227 255 0 0
-1.1092779636383057 -3.5544688701629639 4.2373046875000000 255 0 0
0.5246418118476868 -3.0429441928863525 3.5993463993072510 255 0 0
-1.5244675874710083 -3.4915897846221924 3.9381244182586670 255 0 0
0.1822174042463303 -2.7566223144531250 3.7058789730072021 255 0 0
-1.3712583780288696 -3.3316471576690674 4.1562876701354980 255 0 0
0.2729636430740356 -3.4442098140716553 4.2045540809631348 255 0 0
0.3084758222103119 -3.4292705059051514 4.1369843482971191 255 0 0
-0.8157582283020020 -2.8347151279449463 3.7500836849212646 255 0 0
0.3937228024005890 -2.9233241081237793 3.5537395477294922 255 0 0
-0.0961703136563301 -2.6238074302673340 3.6007916927337646 255 0 0
0.2936045229434967 -2.6189386844635010 4.4003787040710449 255 0 0
-1.4133865833282471 -3.4842917919158936 4.1257500648498535 255 0 0
-0.0653491541743279 -3.1879498958587646 4.0975227355957031 255 0 0
0.5111255645751953 -2.6219244003295898 4.2277197837829590 255 0 0
0.4448127746582031 -2.6379885673522949 3.7334964275360107 255 0 0
-0.2797642648220062 -3.2448463439941406 4.3237724304199219 255 0 0
-0.2346263676881790 -2.7173645496368408 3.9606254100799561 255 0 0
1.5940859317779541 0.6968715786933899 0.1034568175673485 255 0 0
0.4070846736431122 -2.6471893787384033 3.7485134601593018 255 0 0
0.4222065508365631 -2.2978992462158203 3.4555284976959229 255 0 0
0.1257072985172272 -2.7840611934661865 3.6304652690887451 255 0 0
0.4573825895786285 -2.4251685142517090 3.4117956161499023 255 0 0
0.1455338746309280 -2.9603869915008545 3.7536492347717285 255 0 0
0.1147774234414101 -2.4288592338562012 3.6160736083984375 255 0 0
0.2634630203247070 -2.4457671642303467 3.5545163154602051 255 0 0
-0.1730202585458755 -2.4981482028961182 3.7552187442779541 255 0 0
0.0363559089601040 -2.7851846218109131 3.6563587188720703 255 0 0
-0.4362435340881348 -2.8861374855041504 3.7851920127868652 255 0 0
0.3832130134105682 -3.2685968875885010 4.2616500854492188 255 0 0
0.5724743604660034 -2.5839962959289551 4.0641560554504395 255 0 0
-0.3990159034729004 -2.8309960365295410 3.8988220691680908 255 0 0
0.3500295579433441 -3.4318599700927734 3.8840885162353516 255 0 0
0.1430845856666565 -1.8526433706283569 4.9743118286132813 255 0 0
0.3676624894142151 -2.3002605438232422 3.4736988544464111 255 0 0
-0.3045083582401276 -2.8385598659515381 3.7621676921844482 255 0 0
-0.8194640278816223 -3.1884794235229492 3.7737143039703369 255 0 0
-0.0102720027789474 -3.2318637371063232 4.0232834815979004 255 0 0
0.3720541000366211 -3.1225850582122803 3.9868154525756836 255 0 0
0.4433463513851166 -2.3677644729614258 3.5880153179168701 255 0 0
0.0112635111436248 -3.0744130611419678 4.0582847595214844 255 0 0
0.2481964528560638 -2.3074736595153809 3.4632322788238525 255 0 0
0.4378048181533813 -2.6099507808685303 3.7451918125152588 255 0 0
0.3916420340538025 -2.6455912590026855 3.7694125175476074 255 0 0
-0.8594776391983032 -2.9305615425109863 3.7836086750030518 255 0 0
0.4380304217338562 -2.3512432575225830 4.5356278419494629 255 0 0
0.1897059530019760 -3.5136144161224365 4.2252483367919922 255 0 0
0.4296166598796844 -2.8138701915740967 3.8888669013977051 255 0 0
0.2253473848104477 -1.8896621465682983 5.3689393997192383 255 0 0
0.3865424990653992 -2.8334169387817383 4.0773763656616211 255 0 0
-0.1704801023006439 -2.5697293281555176 3.6449713706970215 255 0 0
-0.4568942487239838 -2.9048995971679688 3.7659726142883301 255 0 0
-0.1808073073625565 -2.9107367992401123 3.7847731113433838 255 0 0
0.4905115067958832 -2.2603232860565186 4.6416249275207520 255 0 0
-0.4208623468875885 -2.8651463985443115 3.7582118511199951 255 0 0
0.4541768729686737 -2.7847993373870850 4.0508122444152832 255 0 0
0.3569116890430450 -3.1319248676300049 3.9837176799774170 255 0 0
0.3083810210227966 -2.9742934703826904 3.9412624835968018 255 0 0
0.4631924033164978 -2.2131073474884033 4.8943052291870117 255 0 0
-0.0741401687264442 -3.0017387866973877 3.8739032745361328 255 0 0
0.4546557664871216 -3.0415945053100586 4.1722693443298340 255 0 0
-0.0243324469774961 -2.9334757328033447 3.8904561996459961 255 0 0
0.1617418080568314 -2.7774810791015625 3.8335499763488770 255 0 0
0.3753821551799774 -2.5170135498046875 3.6292116641998291 255 0 0
0.4876324534416199 -2.5819995403289795 4.2637462615966797 255 0 0
0.2931597232818604 -3.4920799732208252 4.2529358863830566 255 0 0
0.3027029037475586 -3.5716819763183594 4.2075710296630859 255 0 0
0.2273295372724533 -3.5291817188262939 4.4082784652709961 255 0 0
0.2279732376337051 -2.2926087379455566 3.5539870262145996 255 0 0
-0.1817270517349243 -2.9735805988311768 3.8076057434082031 255 0 0
-0.2862929105758667 -3.0398845672607422 3.7963588237762451 255 0 0
0.4722231030464172 -2.1162707805633545 5.0340275764465332 255 0 0
-0.2764506042003632 -3.0399663448333740 3.7946312427520752 255 0 0
0.0612528435885906 -3.5468132495880127 4.2732253074645996 255 0 0
0.2117248028516769 -2.9591526985168457 3.8533704280853271 255 0 0
0.1875229924917221 -2.9298079013824463 3.7162129878997803 255 0 0
0.0743928402662277 -2.4905176162719727 3.4305515289306641 255 0 0
0.0980930328369141 -3.1957387924194336 4.0908861160278320 255 0 0
0.2689006626605988 -2.7051715850830078 3.7684729099273682 255 0 0
0.3468259871006012 -3.1103806495666504 3.9868104457855225 255 0 0
0.1165310665965080 -2.7541658878326416 3.7450730800628662 255 0 0
-0.0754138231277466 -2.6184461116790771 3.5524621009826660 255 0 0
0.4819293618202209 -2.5046958923339844 3.4828226566314697 255 0 0
-0.1243442893028259 -3.1546356678009033 4.0155391693115234 255 0 0
0.3836022615432739 -3.1626050472259521 3.9973959922790527 255 0 0
0.1554940193891525 -2.4004178047180176 3.5622825622558594 255 0 0
0.4874642491340637 -3.2365789413452148 4.0757527351379395 255 0 0
0.1435480713844299 -1.9976210594177246 5.1711182594299316 255 0 0
-0.2297105938196182 -2.5421917438507080 4.1430759429931641 255 0 0
-0.1005198732018471 -2.9656772613525391 3.8501312732696533 255 0 0
0.0405024923384190 -2.4250159263610840 3.5494921207427979 255 0 0
0.0293343383818865 -2.7751049995422363 4.2254610061645508 255 0 0
0.0963406339287758 -1.8213733434677124 5.0726552009582520 255 0 0
0.1341343224048615 -2.6133935451507568 3.6656610965728760 255 0 0
0.3527548909187317 -2.3491034507751465 5.0301866531372070 255 0 0
-0.0598153546452522 -3.7073161602020264 4.4338994026184082 255 0 0
0.3444789946079254 -2.4255809783935547 3.6496796607971191 255 0 0
-0.1983839869499207 -2.9965705871582031 3.7591502666473389 255 0 0
0.4534844160079956 -3.2111952304840088 4.0494871139526367 255 0 0
0.4821057021617889 -3.1708478927612305 4.1074366569519043 255 0 0
-0.0503225363790989 -3.3496646881103516 4.2637958526611328 255 0 0
-1.2215675115585327 -3.5776410102844238 4.2883629798889160 255 0 0
0.4668933451175690 -2.8273875713348389 3.9665904045104980 255 0 0
0.1386397480964661 -2.4923176765441895 3.5690834522247314 255 0 0
-0.1029502153396606 -3.5362842082977295 4.6862812042236328 255 0 0
0.3309828639030457 -2.1505460739135742 5.0943784713745117 255 0 0
-0.2887602746486664 -2.6764907836914063 4.2380352020263672 255 0 0
-0.1536596864461899 -2.7051553726196289 3.6847584247589111 255 0 0
0.4817719459533691 -2.7317295074462891 4.2153115272521973 255 0 0
0.1613489091396332 -2.9887421131134033 3.8967709541320801 255 0 0
-1.5202811956405640 -3.1147029399871826 3.9208295345306396 255 0 0
0.0259273368865252 -3.0473296642303467 3.9028506278991699 255 0 0
-1.2499790191650391 -3.2057662010192871 4.0358166694641113 255 0 0
-1.0312837362289429 -3.6208941936492920 4.1417131423950195 255 0 0
0.0019323204178363 -2.8742506504058838 3.8841578960418701 255 0 0
-0.4641753435134888 -2.9291794300079346 3.7478306293487549 255 0 0
-1.4827208518981934 -3.5660653114318848 4.2680373191833496 255 0 0
-1.3248608112335205 -3.5526430606842041 4.2986788749694824 255 0 0
-0.8329489827156067 -3.1421928405761719 3.9030487537384033 255 0 0
-0.8877031207084656 -3.2689535617828369 4.0963935852050781 255 0 0
0.4770973622798920 -2.8289940357208252 3.9543735980987549 255 0 0
-1.1503639221191406 -3.3236956596374512 3.9498035907745361 255 0 0
-0.7594274282455444 -3.0157191753387451 3.8309473991394043 255 0 0
-1.2706896066665649 -3.0726072788238525 3.8828477859497070 255 0 0
0.4377278685569763 -2.7539975643157959 4.0915417671203613 255 0 0
-0.5114269256591797 -2.8465952873229980 3.7789697647094727 255 0 0
-0.9941904544830322 -3.5959985256195068 4.1719622611999512 255 0 0
-1.3504474163055420 -3.1688809394836426 4.0046229362487793 255 0 0
0.4193371534347534 -2.7661342620849609 3.9670205116271973 255 0 0
-0.3303736448287964 -2.8936576843261719 3.7303438186645508 255 0 0
0.1939178854227066 -2.5976562500000000 3.6278872489929199 255 0 0
-1.5781781673431396 -3.1961126327514648 3.8126583099365234 255 0 0
-0.1857656985521317 -2.7823657989501953 3.5694856643676758 255 0 0
-1.4941743612289429 -3.2390298843383789 4.0336742401123047 255 0 0
-1.2899507284164429 -3.2729587554931641 4.0175671577453613 255 0 0
0.3949929177761078 -2.4506173133850098 3.7917740345001221 255 0 0
-0.9784839749336243 -2.9615130424499512 3.7881062030792236 255 0 0
-1.5312530994415283 -3.2568304538726807 3.8798072338104248 255 0 0
0.0243469327688217 -2.8003177642822266 3.6431331634521484 255 0 0
-1.1365617513656616 -3.0668518543243408 3.8069262504577637 255 0 0
0.3377007544040680 -2.4506847858428955 3.5803229808807373 255 0 0
0.4784002304077148 -2.6714317798614502 4.1417913436889648 255 0 0
-0.4620323777198792 -3.0946798324584961 3.9362192153930664 255 0 0
0.2477768510580063 -2.3302249908447266 3.3175971508026123 255 0 0
0.3962154090404510 -2.5994911193847656 3.5253322124481201 255 0 0
-0.1262232065200806 -2.8497545719146729 3.9751873016357422 255 0 0
0.2377068698406219 -2.8468248844146729 3.8645024299621582 255 0 0
1.5540846586227417 0.0113194659352303 0.7890485525131226 255 0 0
0.4548860490322113 -2.4836599826812744 3.3273103237152100 255 0 0
-0.0568967536091805 -3.2439048290252686 4.0157022476196289 255 0 0
-1.1013406515121460 -3.5521225929260254 4.2417707443237305 255 0 0
-0.0919227153062820 -3.1161749362945557 4.0291037559509277 255 0 0
-0.3018366694450378 -2.8308677673339844 3.7253043651580811 255 0 0
0.0818530395627022 -2.7927851676940918 3.7912957668304443 255 0 0
0.4436849951744080 -2.9112265110015869 4.0494742393493652 255 0 0
-0.1166000887751579 -2.8780126571655273 4.0776648521423340 255 0 0
-0.3746903836727142 -2.8409485816955566 3.7697989940643311 255 0 0
0.4978420436382294 -2.1693162918090820 4.9408454895019531 255 0 0
-1.5176438093185425 -3.8454480171203613 4.5061926841735840 255 0 0
0.2196447104215622 -2.6218147277832031 5.2830452919006348 255 0 0
0.4506253898143768 -2.8277318477630615 3.8969092369079590 255 0 0
-0.6640060544013977 -3.4206624031066895 4.1718163490295410 255 0 0
0.1458324790000916 -3.4742763042449951 4.2764196395874023 255 0 0
0.4391282200813293 -2.7252538204193115 3.9004230499267578 255 0 0
-0.1951895654201508 -2.5360853672027588 3.6602764129638672 255 0 0
-0.1608765274286270 -3.0195097923278809 3.9453294277191162 255 0 0
-0.1619105637073517 -3.0256614685058594 3.7833278179168701 255 0 0
0.4533585608005524 -2.5991289615631104 3.7493627071380615 255 0 0
-0.2416105270385742 -3.0953252315521240 3.9753906726837158 255 0 0
-0.4180828630924225 -2.9234833717346191 3.7777225971221924 255 0 0
-1.6595896482467651 -3.4696910381317139 4.1613163948059082 255 0 0
0.4162532687187195 -3.1057875156402588 4.1349601745605469 255 0 0
0.3291852474212646 -2.6082842350006104 3.5523886680603027 255 0 0
0.2067341655492783 -2.6403512954711914 3.5440013408660889 255 0 0
0.5165032148361206 -2.5679209232330322 4.2703843116760254 255 0 0
0.6625199913978577 -3.2038431167602539 3.7944412231445313 255 0 0
0.2646071016788483 -2.5902211666107178 3.6190519332885742 255 0 0
0.0836073607206345 -3.0314068794250488 3.9867386817932129 255 0 0
0.3837415277957916 -2.7843534946441650 3.7794184684753418 255 0 0
0.2837055325508118 -2.4173710346221924 5.0886955261230469 255 0 0
0.1765742003917694 -2.1659128665924072 5.0839571952819824 255 0 0
0.1612481325864792 -3.6326353549957275 4.3612341880798340 255 0 0
0.4393736720085144 -2.4039916992187500 4.5256509780883789 255 0 0
0.0224861670285463 -3.0367722511291504 3.9744195938110352 255 0 0
-0.3173502087593079 -2.9949991703033447 3.9366848468780518 255 0 0
0.4387366473674774 -2.6904366016387939 3.8203527927398682 255 0 0
-0.8861119151115417 -2.8533909320831299 3.7638633251190186 255 0 0
-0.2027824819087982 -3.1414973735809326 3.7641317844390869 255 0 0
-0.2009073793888092 -3.0989277362823486 3.8789684772491455 255 0 0
0.3960627317428589 -2.5534040927886963 3.8759272098541260 255 0 0
0.2148283571004868 -2.5509407520294189 3.5076916217803955 255 0 0
0.3561918735504150 -2.4422998428344727 3.6778733730316162 255 0 0
0.2102170884609222 -2.2810947895050049 3.6257741451263428 255 0 0
0.1807204335927963 -2.5734400749206543 3.6448101997375488 255 0 0
0.4161005616188049 -2.5950438976287842 3.6681685447692871 255 0 0
0.4257115721702576 -2.3228940963745117 3.6003956794738770 255 0 0
0.4835144281387329 -2.3270399570465088 3.3784043788909912 255 0 0
0.4596461653709412 -2.3625831604003906 3.6948778629302979 255 0 0
0.4693742990493774 -3.1643948554992676 4.0946893692016602 255 0 0
0.1003262624144554 -3.4203991889953613 3.9311029911041260 255 0 0
0.1937656104564667 -3.4441392421722412 4.2458419799804688 255 0 0
-0.3061804771423340 -2.6186666488647461 4.0608892440795898 255 0 0
0.4678773283958435 -2.8466589450836182 3.8317925930023193 255 0 0
0.2744292914867401 -2.4079840183258057 3.7025697231292725 255 0 0
0.1375176459550858 -2.3912785053253174 3.3620913028717041 255 0 0
-0.1259780228137970 -2.8732907772064209 3.8093886375427246 255 0 0
0.2430856227874756 -2.2947802543640137 3.5499811172485352 255 0 0
0.1825757026672363 -2.2594721317291260 3.8205621242523193 255 0 0
-0.1362686455249786 -2.9760768413543701 3.7430424690246582 255 0 0
0.5334693193435669 -2.6582300662994385 3.5411632061004639 255 0 0
0.4295607209205627 -2.2425422668457031 4.9778633117675781 255 0 0
-0.1763507425785065 -3.3898539543151855 5.8866872787475586 255 0 0
0.1427501291036606 -2.5460624694824219 3.6584918498992920 255 0 0
0.0138349169865251 -2.8074460029602051 3.5992901325225830 255 0 0
0.1752700954675674 -3.2993602752685547 4.0924334526062012 255 0 0
0.1925179213285446 -2.5806665420532227 4.4790587425231934 255 0 0
0.4658420681953430 -2.2943959236145020 4.7882056236267090 255 0 0
0.3112460076808929 -3.0141801834106445 3.9906973838806152 255 0 0
0.4576337635517120 -3.3502461910247803 4.2327365875244141 255 0 0
-0.2655816376209259 -2.6547329425811768 3.8028876781463623 255 0 0
0.2321889102458954 -2.1206943988800049 5.3836355209350586 255 0 0
0.1039185822010040 -1.9869737625122070 5.2856798171997070 255 0 0
-0.0679557919502258 -2.8671565055847168 3.6656925678253174 255 0 0
0.2402989417314529 -2.2740013599395752 3.6215584278106689 255 0 0
0.2602923214435577 -2.8681712150573730 3.8540868759155273 255 0 0
0.2145716398954391 -2.1290254592895508 4.9937186241149902 255 0 0
-0.0315815433859825 -2.8465564250946045 3.5864906311035156 255 0 0
-0.2985824942588806 -2.8860890865325928 3.7295074462890625 255 0 0
-0.9676191210746765 -3.0371220111846924 3.8296999931335449 255 0 0
-0.1947937309741974 -2.9793033599853516 3.8658940792083740 255 0 0
-0.8956573009490967 -3.6368753910064697 5.7992014884948730 255 0 0
0.4139057397842407 -2.3425416946411133 3.6801884174346924 255 0 0
-0.9738072752952576 -3.4115023612976074 4.0942039489746094 255 0 0
0.2582203447818756 -2.5269508361816406 4.3663325309753418 255 0 0
0.1387902498245239 -2.5407083034515381 3.6454071998596191 255 0 0
0.4614986479282379 -2.3165297508239746 4.8899469375610352 255 0 0
-0.0016909627011046 -3.1332433223724365 4.0102262496948242 255 0 0
0.0457328669726849 -2.6391487121582031 3.5744721889495850 255 0 0
-0.3074039816856384 -3.0340664386749268 3.8984575271606445 255 0 0
0.3884815275669098 -2.4746222496032715 3.6297433376312256 255 0 0
0.3151279091835022 -2.4386312961578369 3.5740633010864258 255 0 0
0.2210583984851837 -2.4123892784118652 3.5435662269592285 255 0 0
0.3625164926052094 -2.3867218494415283 3.9275908470153809 255 0 0
0.4217680394649506 -2.2961759567260742 3.5388302803039551 255 0 0
-0.3465451896190643 -2.9740517139434814 3.8625288009643555 255 0 0
-0.3639656007289886 -2.9462792873382568 5.1583213806152344 255 0 0
0.4490340650081635 -2.5553953647613525 4.3017082214355469 255 0 0
0.3547649383544922 -2.4485242366790771 3.6011157035827637 255 0 0
0.0992399752140045 -3.0003356933593750 3.8899681568145752 255 0 0
-0.7793939709663391 -2.8649158477783203 3.7031250000000000 255 0 0
-0.4132120311260223 -2.9480142593383789 3.8065769672393799 255 0 0
0.1976266801357269 -2.3591985702514648 3.8853089809417725 255 0 0
0.3093651831150055 -2.6709427833557129 3.7103924751281738 255 0 0
-0.8066127896308899 -3.6178979873657227 4.3600401878356934 255 0 0
0.0232595037668943 -2.2897644042968750 3.6238813400268555 255 0 0
-0.1314331442117691 -2.5339248180389404 3.7283890247344971 255 0 0
0.4889354109764099 -2.5530562400817871 3.5870230197906494 255 0 0
0.1997644454240799 -2.2970271110534668 3.5496833324432373 255 0 0
-0.1806292384862900 -3.0214653015136719 3.9548640251159668 255 0 0
-0.4086360037326813 -3.0708732604980469 3.8873071670532227 255 0 0
-0.0930084288120270 -2.8886220455169678 3.8098554611206055 255 0 0
0.2233551889657974 -2.3324151039123535 4.5459399223327637 255 0 0
-0.1837313622236252 -3.1276888847351074 3.8774037361145020 255 0 0
0.2864713370800018 -3.0108981132507324 3.9435467720031738 255 0 0
0.1899150013923645 -2.2218670845031738 4.9582352638244629 255 0 0
0.3563216626644135 -2.4494874477386475 3.4972615242004395 255 0 0
0.4248060882091522 -3.1579411029815674 4.2346806526184082 255 0 0
0.2418358623981476 -2.3767511844635010 3.5318200588226318 255 0 0
0.3416002988815308 -2.7274029254913330 3.7158775329589844 255 0 0
-0.1398720294237137 -3.0429427623748779 3.6965823173522949 255 0 0
0.2889131307601929 -2.4360609054565430 3.5132553577423096 255 0 0
0.3536401391029358 -2.7713947296142578 3.3171689510345459 255 0 0
0.4508778750896454 -2.4806742668151855 3.6464776992797852 255 0 0
-0.0021732300519943 -2.6721410751342773 3.6975231170654297 255 0 0
-0.2474951893091202 -2.9397063255310059 3.8633301258087158 255 0 0
0.0440593175590038 -2.7009985446929932 3.7264087200164795 255 0 0
0.2200195044279099 -2.9579949378967285 3.8726990222930908 255 0 0
0.3896923065185547 -2.5649068355560303 3.5991330146789551 255 0 0
-0.4917477369308472 -3.2647883892059326 4.0356636047363281 255 0 0
-0.3204136192798615 -3.0825421810150146 3.8317368030548096 255 0 0
0.1305284500122070 -2.7172956466674805 3.6649720668792725 255 0 0
0.4431838989257813 -2.4712960720062256 3.6163215637207031 255 0 0
0.4035395681858063 -2.5650308132171631 3.3754734992980957 255 0 0
-0.2420012801885605 -3.3199169635772705 4.0673456192016602 255 0 0
0.2069172561168671 -3.0280494689941406 3.5730690956115723 255 0 0
0.4221504032611847 -2.7163383960723877 3.3914878368377686 255 0 0
0.0486125573515892 -2.7009456157684326 3.7405259609222412 255 0 0
-0.3358761668205261 -4.2052164077758789 6.6529006958007813 255 0 0
0.0123225115239620 -2.6794939041137695 3.7170062065124512 255 0 0
0.1239767596125603 -2.6559255123138428 3.7002685070037842 255 0 0
-0.0286146476864815 -2.8476622104644775 3.6833605766296387 255 0 0
-0.1369775682687759 -2.5512852668762207 3.7323350906372070 255 0 0
0.1957949995994568 -2.7685871124267578 3.7187235355377197 255 0 0
0.2044881582260132 -2.7739322185516357 3.7433779239654541 255 0 0
0.4351159334182739 -2.5835347175598145 3.6705851554870605 255 0 0
0.4954047203063965 -2.6515643596649170 4.1278753280639648 255 0 0
0.0230931118130684 -3.6536397933959961 4.7017521858215332 255 0 0
0.1156901419162750 -2.8733127117156982 3.8755879402160645 255 0 0
0.4385426342487335 -2.3806300163269043 3.5583963394165039 255 0 0
-0.2428915947675705 -3.0297896862030029 3.7779684066772461 255 0 0
0.2225960046052933 -2.9455201625823975 3.9032106399536133 255 0 0
-0.0417497567832470 -2.7271952629089355 3.9929807186126709 255 0 0
0.2011472880840302 -2.6900062561035156 3.7523646354675293 255 0 0
0.2498292773962021 -2.6813559532165527 3.6725666522979736 255 0 0
0.3313877284526825 -2.6461851596832275 3.7110371589660645 255 0 0
-0.0563928447663784 -2.9826374053955078 3.6427652835845947 255 0 0
-0.2135542929172516 -2.9683120250701904 3.8558371067047119 255 0 0
0.3154945373535156 -2.6580801010131836 4.2861013412475586 255 0 0
-0.1328499466180801 -3.1166625022888184 4.0001878738403320 255 0 0
0.2603639960289001 -2.4140753746032715 3.5279271602630615 255 0 0
0.4097338020801544 -2.5215582847595215 3.4959836006164551 255 0 0
0.4344969391822815 -2.4719500541687012 3.6372132301330566 255 0 0
0.5492783188819885 -2.6327657699584961 4.0930643081665039 255 0 0
0.3668355941772461 -3.1524140834808350 3.9469234943389893 255 0 0
0.4309752583503723 -2.3101294040679932 3.5224492549896240 255 0 0
0.2049209922552109 -2.3887999057769775 3.5824825763702393 255 0 0
-0.1399424970149994 -2.5829980373382568 3.6205501556396484 255 0 0
0.0809431746602058 -2.7805411815643311 3.7633047103881836 255 0 0
0.1495874375104904 -2.7496147155761719 3.6536552906036377 255 0 0
0.4870879948139191 -2.5757224559783936 3.6719086170196533 255 0 0
0.4348796010017395 -2.5441265106201172 3.5967164039611816 255 0 0
0.4373505115509033 -2.7317478656768799 3.8574700355529785 255 0 0
0.1758105456829071 -2.9974503517150879 3.8591756820678711 255 0 0
-0.0858521834015846 -3.2704484462738037 4.1410574913024902 255 0 0
0.1908176243305206 -2.7673783302307129 3.7803761959075928 255 0 0
0.2811482846736908 -2.7267193794250488 3.8752584457397461 255 0 0
