//X Y Z R G B
695
-3.7507655620574951 1.9863381385803223 -2.0984907150268555 255 176 0
-3.9871084690093994 2.0304923057556152 -2.0012373924255371 255 176 0
-3.9637343883514404 2.2598667144775391 -1.8433905839920044 255 176 0
-3.9385685920715332 1.8597891330718994 -1.8837339878082275 255 176 0
-4.1006965637207031 1.8959374427795410 -1.8130434751510620 255 176 0
-4.0118885040283203 1.9314218759536743 -1.6721709966659546 255 176 0
-3.8455300331115723 2.0407967567443848 -1.9291810989379883 255 176 0
-4.3899178504943848 2.1658792495727539 -1.6018587350845337 255 176 0
-4.3051323890686035 2.0762543678283691 -1.7115567922592163 255 176 0
-4.0686216354370117 1.7297239303588867 -1.7029924392700195 255 176 0
-3.8387579917907715 1.9842534065246582 -1.7220648527145386 255 176 0
-3.9488308429718018 1.5749616622924805 -1.5844445228576660 255 176 0
-3.9900639057159424 1.9498928785324097 -1.7429099082946777 255 176 0
-4.0121884346008301 1.9281810522079468 -1.6622948646545410 255 176 0
-4.0638942718505859 1.6119265556335449 -1.6279187202453613 255 176 0
-3.9626734256744385 1.9112379550933838 -1.7535897493362427 255 176 0
-3.7512276172637939 1.9162716865539551 -1.7884943485260010 255 176 0
-4.1478962898254395 1.8223288059234619 -1.6803866624832153 255 176 0
-4.3903069496154785 2.3581950664520264 -2.0682284832000732 255 176 0
-3.8884675502777100 1.8326994180679321 -1.8505982160568237 255 176 0
-4.1360836029052734 1.5523610115051270 -1.8626879453659058 255 176 0
-3.9472923278808594 1.9269827604293823 -1.7796171903610229 255 176 0
-3.7876825332641602 2.0008623600006104 -1.8563383817672729 255 176 0
-4.1066064834594727 1.9080920219421387 -1.8689218759536743 255 176 0
-3.7696065902709961 2.0872161388397217 -2.0147111415863037 255 176 0
-3.8893892765045166 1.8998832702636719 -2.0825884342193604 255 176 0
-3.4790685176849365 1.4345728158950806 -1.6467272043228149 255 176 0
-3.9177374839782715 2.0294160842895508 -1.8266193866729736 255 176 0
-3.8964619636535645 1.9187023639678955 -1.5532238483428955 255 176 0
-3.9938838481903076 1.5801534652709961 -1.7261700630187988 255 176 0
-3.9972677230834961 1.8437725305557251 -1.8632997274398804 255 176 0
-4.2979631423950195 2.0729956626892090 -1.7235529422760010 255 176 0
-3.9335832595825195 1.8823074102401733 -1.9155775308609009 255 176 0
-4.2143063545227051 1.9332598447799683 -1.6655398607254028 255 176 0
-4.0906147956848145 1.7483303546905518 -1.7595138549804688 255 176 0
-3.8734347820281982 1.8009104728698730 -1.9056620597839355 255 176 0
-3.8255755901336670 2.0298025608062744 -1.5986946821212769 255 176 0
-3.3852586746215820 1.4098644256591797 -1.5584170818328857 255 176 0
-4.1219210624694824 1.8010156154632568 -1.8612794876098633 255 176 0
-3.9164285659790039 1.8933104276657104 -1.9270079135894775 255 176 0
-3.7024452686309814 2.1075389385223389 -1.6867132186889648 255 176 0
-3.8982739448547363 1.8332481384277344 -1.7723615169525146 255 176 0
-3.9761540889739990 1.8922424316406250 -1.7388298511505127 255 176 0
-3.9061684608459473 1.9353581666946411 -1.7853517532348633 255 176 0
-4.1775636672973633 1.5166875123977661 -1.8383495807647705 255 176 0
-3.8569877147674561 1.9524576663970947 -1.7699348926544189 255 176 0
-3.6772270202636719 1.6760772466659546 -1.7492215633392334 255 176 0
-4.0502166748046875 1.9260721206665039 -1.8914548158645630 255 176 0
-3.9532210826873779 2.3404262065887451 -1.7992209196090698 255 176 0
-4.2320952415466309 1.8157894611358643 -1.5207523107528687 255 176 0
-3.8546974658966064 1.9587005376815796 -1.6978933811187744 255 176 0
-3.9461925029754639 1.9317255020141602 -1.6702209711074829 255 176 0
-4.1805267333984375 1.7830824851989746 -1.7496405839920044 255 176 0
-3.9773435592651367 1.9039136171340942 -1.8666574954986572 255 176 0
-3.7719702720642090 2.1504042148590088 -1.9424806833267212 255 176 0
-3.8475270271301270 1.9932175874710083 -2.1371512413024902 255 176 0
-3.7409391403198242 2.0136070251464844 -2.0043218135833740 255 176 0
-3.7120480537414551 2.0854201316833496 -1.7476261854171753 255 176 0
-4.2502555847167969 1.8831259012222290 -1.9088045358657837 255 176 0
-4.1566362380981445 1.9082576036453247 -1.7569115161895752 255 176 0
-3.8043079376220703 1.8913795948028564 -1.7710113525390625 255 176 0
-3.8642168045043945 1.8323392868041992 -1.7696597576141357 255 176 0
-3.6442668437957764 1.9502879381179810 -1.8135360479354858 255 176 0
-4.1739935874938965 1.7414488792419434 -1.5661411285400391 255 176 0
-3.8707301616668701 1.9085294008255005 -1.7904338836669922 255 176 0
-4.1133041381835938 1.8004795312881470 -1.8010891675949097 255 176 0
-3.7641439437866211 2.0466098785400391 -2.0648074150085449 255 176 0
-3.6604602336883545 2.0091090202331543 -1.6711667776107788 255 176 0
-4.0274744033813477 1.3450337648391724 -1.5131653547286987 255 176 0
-3.6194689273834229 1.5748909711837769 -1.7251093387603760 255 176 0
-3.7963542938232422 1.3686904907226563 -1.6227649450302124 255 176 0
-4.0662684440612793 1.9911336898803711 -1.8430056571960449 255 176 0
-3.7479467391967773 2.1051919460296631 -1.9370197057723999 255 176 0
-4.0389838218688965 1.7940154075622559 -1.8689762353897095 255 176 0
-3.9677593708038330 1.9007034301757813 -1.7719739675521851 255 176 0
-4.1241397857666016 1.7956657409667969 -1.6981627941131592 255 176 0
-3.8975105285644531 2.0564463138580322 -1.9617660045623779 255 176 0
-4.0136227607727051 1.9384068250656128 -1.7399543523788452 255 176 0
-4.1100778579711914 1.6599597930908203 -1.5729964971542358 255 176 0
-3.9313328266143799 1.4158079624176025 -1.6358972787857056 255 176 0
-3.9447293281555176 1.5829380750656128 -1.6207582950592041 255 176 0
-3.5979876518249512 1.7865985631942749 -1.6831699609756470 255 176 0
-3.6333310604095459 1.9337207078933716 -1.6641669273376465 255 176 0
-3.9002032279968262 1.9466139078140259 -1.7148337364196777 255 176 0
-4.0665383338928223 1.8160680532455444 -1.8425173759460449 255 176 0
-3.7232556343078613 1.4180707931518555 -1.4459151029586792 255 176 0
-3.6851041316986084 2.0766599178314209 -1.6246238946914673 255 176 0
-4.1797170639038086 1.7185389995574951 -1.6236001253128052 255 176 0
-3.6816778182983398 1.9079874753952026 -2.0032014846801758 255 176 0
-3.0751109123229980 0.7758461833000183 -1.5882003307342529 255 176 0
-3.8042874336242676 1.9942207336425781 -1.8345036506652832 255 176 0
-4.3451175689697266 2.0348780155181885 -1.7812803983688354 255 176 0
-4.0495414733886719 2.4064421653747559 -1.8700255155563354 255 176 0
-3.6682920455932617 1.7917004823684692 -1.7730984687805176 255 176 0
-3.9803640842437744 2.0031049251556396 -1.8568601608276367 255 176 0
-4.5746173858642578 2.4611771106719971 -1.7438308000564575 255 176 0
-4.1932754516601563 1.8375525474548340 -1.7135899066925049 255 176 0
-4.1178731918334961 1.8574889898300171 -1.8441188335418701 255 176 0
-4.0462498664855957 1.9506436586380005 -1.6521034240722656 255 176 0
-4.0429315567016602 1.8720569610595703 -1.8580744266510010 255 176 0
-4.0108613967895508 1.8655793666839600 -1.7643613815307617 255 176 0
-3.7211332321166992 2.0477812290191650 -1.8767488002777100 255 176 0
-3.6984696388244629 1.4959528446197510 -1.8238166570663452 255 176 0
-3.7276561260223389 1.8207514286041260 -1.8548357486724854 255 176 0
-4.0654950141906738 1.9191806316375732 -1.8266460895538330 255 176 0
-3.8747551441192627 1.8926844596862793 -1.6869729757308960 255 176 0
-4.1992983818054199 1.9773418903350830 -1.7677388191223145 255 176 0
-3.9750568866729736 2.0166165828704834 -1.7092444896697998 255 176 0
-4.1545395851135254 1.8652758598327637 -1.6758067607879639 255 176 0
-3.6199774742126465 1.9061235189437866 -1.7150565385818481 255 176 0
-3.7466428279876709 1.9387382268905640 -2.0001940727233887 255 176 0
-3.9053246974945068 1.8950673341751099 -1.9697139263153076 255 176 0
-4.2074451446533203 1.9018949270248413 -1.7391159534454346 255 176 0
-3.7248451709747314 2.1471087932586670 -1.6600071191787720 255 176 0
-4.1964592933654785 1.9065101146697998 -1.7095386981964111 255 176 0
-4.0531268119812012 1.8553408384323120 -1.7953172922134399 255 176 0
-3.9413187503814697 1.9518171548843384 -1.9347791671752930 255 176 0
-3.9625022411346436 1.9115817546844482 -1.7168874740600586 255 176 0
-4.0108776092529297 2.2573888301849365 -1.8727910518646240 255 176 0
-4.2082695960998535 1.7197474241256714 -1.6987353563308716 255 176 0
-4.2694058418273926 1.7096341848373413 -1.8619233369827271 255 176 0
-3.4959950447082520 1.4863580465316772 -1.7812176942825317 255 176 0
-3.8453011512756348 2.1105208396911621 -1.7924312353134155 255 176 0
-3.7570793628692627 1.7440565824508667 -1.9848030805587769 255 176 0
-3.6299297809600830 1.9397004842758179 -1.6602952480316162 255 176 0
-3.1410188674926758 0.7537941336631775 -1.3651603460311890 255 176 0
-3.9090695381164551 2.1045420169830322 -1.9123057126998901 255 176 0
-3.7869303226470947 2.0243804454803467 -1.9305058717727661 255 176 0
-4.1788902282714844 2.1926929950714111 -1.7663968801498413 255 176 0
-3.5733697414398193 1.6670185327529907 -1.8520183563232422 255 176 0
-3.7509009838104248 2.0209467411041260 -2.0269429683685303 255 176 0
-4.0874061584472656 1.8031837940216064 -1.9038503170013428 255 176 0
-3.8247084617614746 1.9887962341308594 -1.8749890327453613 255 176 0
-3.8791220188140869 1.8817892074584961 -1.6772166490554810 255 176 0
-3.8534972667694092 1.7788677215576172 -1.6357835531234741 255 176 0
-4.1817393302917480 1.9023100137710571 -1.6635670661926270 255 176 0
-3.6863408088684082 2.0614984035491943 -1.7727254629135132 255 176 0
-3.9140546321868896 1.9591352939605713 -1.7081724405288696 255 176 0
-3.5942847728729248 1.5437312126159668 -1.7102528810501099 255 176 0
-3.7955100536346436 1.9528231620788574 -1.8788644075393677 255 176 0
-4.1937232017517090 1.8659794330596924 -1.8555566072463989 255 176 0
-3.6622047424316406 2.0408186912536621 -1.6448750495910645 255 176 0
-3.8254497051239014 1.9339785575866699 -1.7646342515945435 255 176 0
-4.0510382652282715 1.9104237556457520 -1.7443976402282715 255 176 0
-3.8897583484649658 1.9400898218154907 -1.9672240018844604 255 176 0
-4.2484664916992188 1.7907203435897827 -1.6336927413940430 255 176 0
-3.9451096057891846 1.9456608295440674 -2.1127300262451172 255 176 0
-3.6786401271820068 1.9127991199493408 -1.5818076133728027 255 176 0
-4.1293191909790039 1.9117012023925781 -1.6508257389068604 255 176 0
-3.9895343780517578 1.8133183717727661 -1.7446014881134033 255 176 0
-3.9445755481719971 1.9265450239181519 -1.7471972703933716 255 176 0
-3.8545873165130615 1.9953211545944214 -2.0438394546508789 255 176 0
-3.7649588584899902 1.8558557033538818 -1.8111324310302734 255 176 0
-3.7980208396911621 1.9716086387634277 -2.0887768268585205 255 176 0
-3.7308506965637207 2.0406074523925781 -1.7964242696762085 255 176 0
-4.0970196723937988 1.8614765405654907 -1.5073792934417725 255 176 0
-3.6893494129180908 1.8339234590530396 -2.0470221042633057 255 176 0
-4.0276207923889160 1.7706338167190552 -1.9263800382614136 255 176 0
-4.1378474235534668 1.7741287946701050 -1.8202888965606689 255 176 0
-3.8397130966186523 2.0297715663909912 -1.9370503425598145 255 176 0
-3.8567676544189453 1.3870903253555298 -1.4721623659133911 255 176 0
-3.8759586811065674 2.3527843952178955 -1.8954713344573975 255 176 0
-3.9625151157379150 2.1565129756927490 -1.7258760929107666 255 176 0
-4.2144756317138672 1.7578150033950806 -1.6254969835281372 255 176 0
-3.8048975467681885 2.0936131477355957 -1.7986195087432861 255 176 0
-4.2379574775695801 1.8024103641510010 -1.5898237228393555 255 176 0
-4.0605773925781250 2.6735754013061523 -2.0379366874694824 255 176 0
-4.1432309150695801 1.8474107980728149 -1.6420104503631592 255 176 0
-4.1114501953125000 1.9216012954711914 -1.6644978523254395 255 176 0
-3.8632092475891113 2.1662518978118896 -1.8557418584823608 255 176 0
-4.0061240196228027 1.9698202610015869 -1.6514985561370850 255 176 0
-4.1045713424682617 2.2277615070343018 -1.7457002401351929 255 176 0
-4.0931320190429688 1.8060429096221924 -1.8277549743652344 255 176 0
-3.6672301292419434 1.9826226234436035 -1.6233185529708862 255 176 0
-3.6249744892120361 1.6696799993515015 -1.9191697835922241 255 176 0
-4.0544061660766602 1.9848860502243042 -1.6928893327713013 255 176 0
-3.7631204128265381 2.0597975254058838 -1.9468928575515747 255 176 0
-3.7011675834655762 2.0516998767852783 -1.7517570257186890 255 176 0
-3.9664111137390137 2.3443064689636230 -1.9291524887084961 255 176 0
-3.7391159534454346 2.1423370838165283 -1.8000769615173340 255 176 0
-4.2679200172424316 1.8008460998535156 -1.6678644418716431 255 176 0
-3.7428402900695801 1.7826911211013794 -2.0073657035827637 255 176 0
-3.7712895870208740 1.9275155067443848 -2.1118009090423584 255 176 0
-3.7575984001159668 1.5292860269546509 -1.5668364763259888 255 176 0
-4.0668501853942871 1.9342176914215088 -1.7079547643661499 255 176 0
-4.2270498275756836 2.0128324031829834 -1.7344849109649658 255 176 0
-3.9254512786865234 1.9548642635345459 -1.9824758768081665 255 176 0
-3.6537570953369141 1.8380361795425415 -1.8408150672912598 255 176 0
-3.9204201698303223 1.8803925514221191 -1.8604758977890015 255 176 0
-4.1604304313659668 1.9434009790420532 -1.8412305116653442 255 176 0
-4.1586389541625977 1.8534321784973145 -1.8074458837509155 255 176 0
-4.2441768646240234 1.9504104852676392 -1.7793470621109009 255 176 0
-3.8670954704284668 2.1257107257843018 -1.8224524259567261 255 176 0
-3.8575601577758789 1.8712054491043091 -1.7077717781066895 255 176 0
-4.0488834381103516 2.0631549358367920 -1.7953921556472778 255 176 0
-3.8511021137237549 1.7004622220993042 -1.7704856395721436 255 176 0
-4.1441907882690430 1.8693006038665771 -1.7303303480148315 255 176 0
-4.4596052169799805 2.1469855308532715 -1.6691931486129761 255 176 0
-3.6028110980987549 1.8593691587448120 -1.6818906068801880 255 176 0
-3.7844743728637695 1.9801810979843140 -1.7829496860504150 255 176 0
-4.3173580169677734 1.7826529741287231 -1.8057836294174194 255 176 0
-3.8890321254730225 2.0172419548034668 -1.7397822141647339 255 176 0
-3.8375859260559082 2.1105539798736572 -1.7785048484802246 255 176 0
-3.7481839656829834 1.9543397426605225 -2.1037347316741943 255 176 0
-3.8840861320495605 1.9121435880661011 -1.9514205455780029 255 176 0
-4.1046481132507324 1.6522759199142456 -1.5091253519058228 255 176 0
-3.9429118633270264 1.5039467811584473 -1.4872196912765503 255 176 0
-3.5268499851226807 1.6697728633880615 -1.8204226493835449 255 176 0
-3.6844215393066406 1.8592271804809570 -2.0065498352050781 255 176 0
-4.0346393585205078 1.9697639942169189 -1.8951555490493774 255 176 0
-3.8699629306793213 1.9514517784118652 -1.9459729194641113 255 176 0
-3.5814433097839355 1.7850235700607300 -1.8398844003677368 255 176 0
-4.2180709838867188 1.8314561843872070 -1.4913284778594971 255 176 0
-4.1172900199890137 1.8040856122970581 -1.7585215568542480 255 176 0
-3.6819598674774170 2.0452423095703125 -1.7311543226242065 255 176 0
-4.0117034912109375 1.8682779073715210 -2.0749568939208984 255 176 0
-3.7081782817840576 2.1002361774444580 -1.8180438280105591 255 176 0
-3.9382793903350830 1.9271483421325684 -1.7821422815322876 255 176 0
-3.9323790073394775 1.5306469202041626 -1.4929870367050171 255 176 0
-3.7044823169708252 1.9513510465621948 -1.7557790279388428 255 176 0
-3.8309023380279541 1.8613479137420654 -1.6510876417160034 255 176 0
-3.5783410072326660 1.8046791553497314 -1.7154636383056641 255 176 0
-4.1177244186401367 1.7759468555450439 -1.8517324924468994 255 176 0
-3.6117660999298096 1.7810753583908081 -1.8800659179687500 255 176 0
-3.7837579250335693 2.1925680637359619 -1.8568471670150757 255 176 0
-4.1709237098693848 1.6916868686676025 -1.4774798154830933 255 176 0
-4.1662273406982422 1.7514177560806274 -1.5254907608032227 255 176 0
-3.8401546478271484 2.0699093341827393 -1.7478114366531372 255 176 0
-4.0534291267395020 1.7751208543777466 -1.9649170637130737 255 176 0
-3.9728422164916992 1.8926440477371216 -1.7789174318313599 255 176 0
-3.8718602657318115 1.9834800958633423 -1.7687922716140747 255 176 0
-4.0533590316772461 1.8347108364105225 -1.6587866544723511 255 176 0
-4.2060842514038086 1.8683881759643555 -1.6123420000076294 255 176 0
-4.1193509101867676 1.8086419105529785 -1.7216886281967163 255 176 0
-3.8223516941070557 1.9352998733520508 -1.8528592586517334 255 176 0
-4.2127552032470703 1.7313572168350220 -1.6774975061416626 255 176 0
-4.0377664566040039 1.8656902313232422 -1.8347032070159912 255 176 0
-3.9681468009948730 1.8285677433013916 -1.5705058574676514 255 176 0
-3.6685719490051270 1.8246649503707886 -1.8465819358825684 255 176 0
-4.1338095664978027 1.8596122264862061 -1.8154035806655884 255 176 0
-4.3944654464721680 1.9901884794235229 -1.8219033479690552 255 176 0
-3.6233539581298828 1.9552431106567383 -1.6589287519454956 255 176 0
-3.7159702777862549 2.0454769134521484 -1.9155466556549072 255 176 0
-3.7128858566284180 2.0582015514373779 -1.8398947715759277 255 176 0
-4.2955503463745117 1.9387929439544678 -1.5561810731887817 255 176 0
-4.0409336090087891 1.9378759860992432 -1.6365549564361572 255 176 0
-3.7926678657531738 2.2112748622894287 -1.7617670297622681 255 176 0
-3.9043126106262207 1.8960567712783813 -1.6473411321640015 255 176 0
-3.8646864891052246 1.9766218662261963 -1.7339475154876709 255 176 0
-4.0089960098266602 1.8462756872177124 -1.9158899784088135 255 176 0
-4.2985167503356934 1.7990056276321411 -1.7497575283050537 255 176 0
-3.9660041332244873 1.9343740940093994 -1.6380981206893921 255 176 0
-3.8658311367034912 2.0041477680206299 -1.7374678850173950 255 176 0
-4.1360821723937988 1.7733491659164429 -1.7280844449996948 255 176 0
-4.0826282501220703 1.8145533800125122 -1.7954231500625610 255 176 0
-4.0137867927551270 1.8752540349960327 -1.7534235715866089 255 176 0
-3.7549066543579102 2.1222326755523682 -1.8992983102798462 255 176 0
-3.6797044277191162 1.9541174173355103 -1.8466711044311523 255 176 0
-3.6499085426330566 1.9702166318893433 -1.7945227622985840 255 176 0
-4.0149698257446289 1.8541646003723145 -1.8753339052200317 255 176 0
-4.0302453041076660 1.8130024671554565 -1.9757417440414429 255 176 0
-3.7398736476898193 1.9644731283187866 -1.7049105167388916 255 176 0
-4.1194057464599609 1.7964643239974976 -1.7297259569168091 255 176 0
-4.0311598777770996 1.9533010721206665 -1.6264393329620361 255 176 0
-4.1263103485107422 1.7776743173599243 -1.6761955022811890 255 176 0
-4.2503542900085449 2.0826935768127441 -1.9482709169387817 255 176 0
-3.7505688667297363 1.9058279991149902 -1.8632327318191528 255 176 0
-4.2404522895812988 1.6608160734176636 -1.8937807083129883 255 176 0
-3.7965335845947266 2.1924943923950195 -1.9616031646728516 255 176 0
-3.6397302150726318 1.9775661230087280 -1.6449670791625977 255 176 0
-4.0243854522705078 1.9509323835372925 -1.6001945734024048 255 176 0
-3.9609985351562500 1.8215790987014771 -1.5972548723220825 255 176 0
-4.1924753189086914 1.8552941083908081 -1.6769293546676636 255 176 0
-4.2523937225341797 1.8101999759674072 -1.5137554407119751 255 176 0
-3.8648731708526611 1.8962588310241699 -1.6478314399719238 255 176 0
-4.3116641044616699 1.7676414251327515 -1.8454537391662598 255 176 0
-4.0426616668701172 1.8944624662399292 -1.8134192228317261 255 176 0
-3.8995969295501709 1.8478569984436035 -1.8812016248703003 255 176 0
-3.9480946063995361 1.8635410070419312 -1.7430300712585449 255 176 0
-3.6824326515197754 1.9694894552230835 -1.8109840154647827 255 176 0
-4.0730495452880859 1.7977262735366821 -1.8720014095306396 255 176 0
-3.9990608692169189 1.7608455419540405 -1.8122318983078003 255 176 0
-3.6995604038238525 2.0229599475860596 -1.8708858489990234 255 176 0
-3.9710054397583008 1.6356303691864014 -1.8466799259185791 255 176 0
-4.0432481765747070 1.7433377504348755 -1.8440769910812378 255 176 0
-3.8951761722564697 2.0259497165679932 -1.7023832798004150 255 176 0
-3.9641051292419434 1.8967803716659546 -1.7618684768676758 255 176 0
-3.9875843524932861 1.8085978031158447 -1.7899529933929443 255 176 0
-3.8923182487487793 1.9075584411621094 -1.6927306652069092 255 176 0
-3.8513970375061035 1.9889383316040039 -1.7498480081558228 255 176 0
-4.2205500602722168 1.7766557931900024 -1.6003854274749756 255 176 0
-3.9683585166931152 2.0021407604217529 -1.6621425151824951 255 176 0
-4.1686849594116211 1.7350807189941406 -1.5031266212463379 255 176 0
-3.9473636150360107 1.9241453409194946 -1.7303845882415771 255 176 0
-3.6580164432525635 2.0104753971099854 -1.7398115396499634 255 176 0
-3.4074876308441162 1.2613350152969360 -1.4336048364639282 255 176 0
-3.7297577857971191 2.1211538314819336 -1.8337808847427368 255 176 0
-4.1548595428466797 1.8110648393630981 -1.9620184898376465 255 176 0
-3.9521715641021729 2.0062336921691895 -1.6833518743515015 255 176 0
-3.7918143272399902 2.0162091255187988 -1.7371833324432373 255 176 0
-3.8380537033081055 1.9026117324829102 -1.6634007692337036 255 176 0
-4.0716547966003418 1.6163452863693237 -1.4659823179244995 255 176 0
-4.1524901390075684 1.7785065174102783 -1.5315049886703491 255 176 0
-3.7501122951507568 2.0127589702606201 -1.9941575527191162 255 176 0
-4.1745891571044922 1.7544267177581787 -1.5413262844085693 255 176 0
-3.6714441776275635 1.8556468486785889 -1.9340353012084961 255 176 0
-4.0525736808776855 1.8462047576904297 -1.7499417066574097 255 176 0
-4.0320296287536621 1.7010067701339722 -1.5340771675109863 255 176 0
-4.2324137687683105 1.7055413722991943 -1.7812224626541138 255 176 0
-3.6576437950134277 2.0069611072540283 -1.6736425161361694 255 176 0
-4.0694913864135742 1.8039489984512329 -1.5891947746276855 255 176 0
-3.6973981857299805 2.0394983291625977 -1.8202641010284424 255 176 0
-3.7179255485534668 1.9430505037307739 -1.7867106199264526 255 176 0
-3.7692563533782959 1.8977881669998169 -1.6684334278106689 255 176 0
-3.8120324611663818 2.1337914466857910 -2.0760614871978760 255 176 0
-4.1411232948303223 1.8107172250747681 -2.0327494144439697 255 176 0
-3.7608222961425781 2.1293194293975830 -1.9360885620117188 255 176 0
-3.9257767200469971 1.9124243259429932 -1.8447197675704956 255 176 0
-3.9645631313323975 2.0983314514160156 -1.7450431585311890 255 176 0
-4.1376218795776367 1.8926260471343994 -1.6792142391204834 255 176 0
-3.6695609092712402 1.9887920618057251 -1.7318495512008667 255 176 0
-4.1637115478515625 1.7723163366317749 -1.5234441757202148 255 176 0
-3.9192383289337158 1.8999439477920532 -1.9841936826705933 255 176 0
-3.7076432704925537 2.0896520614624023 -1.7701922655105591 255 176 0
-3.9968631267547607 1.9259951114654541 -1.6283543109893799 255 176 0
-3.8044049739837646 1.9592423439025879 -2.1216907501220703 255 176 0
-4.1251430511474609 1.7770186662673950 -1.8149876594543457 255 176 0
-3.6782922744750977 2.0414142608642578 -1.7706295251846313 255 176 0
-3.8439991474151611 1.9741750955581665 -1.8780804872512817 255 176 0
-3.9128639698028564 1.4575557708740234 -1.5327059030532837 255 176 0
-4.2017292976379395 1.7517554759979248 -1.6123361587524414 255 176 0
-4.2366037368774414 1.6848708391189575 -1.8325363397598267 255 176 0
-4.2406888008117676 1.7282116413116455 -1.7476814985275269 255 176 0
-4.2210631370544434 1.7417691946029663 -1.6725889444351196 255 176 0
-3.6764605045318604 1.2220519781112671 -1.6549819707870483 255 176 0
-4.2376065254211426 1.7116523981094360 -1.7930666208267212 255 176 0
-4.0610747337341309 1.5887053012847900 -1.6268095970153809 255 176 0
-3.4337179660797119 1.0484702587127686 -1.6532832384109497 255 176 0
-3.8289704322814941 1.9740314483642578 -1.7910786867141724 255 176 0
-4.1306772232055664 1.9326987266540527 -1.7561265230178833 255 176 0
-4.0074386596679688 1.9342306852340698 -1.7766001224517822 255 176 0
-4.3646883964538574 2.2387287616729736 -1.7823092937469482 255 176 0
-3.8368883132934570 1.9228247404098511 -2.0988931655883789 255 176 0
-3.9626467227935791 1.9480580091476440 -2.1167831420898438 255 176 0
-4.0905218124389648 1.7284517288208008 -1.9871692657470703 255 176 0
-4.2659363746643066 1.8100093603134155 -1.6220349073410034 255 176 0
-4.1391005516052246 1.7518045902252197 -1.4839029312133789 255 176 0
-4.0374207496643066 1.6504375934600830 -1.4788500070571899 255 176 0
-3.8645057678222656 2.0040278434753418 -1.8313580751419067 255 176 0
-3.7326829433441162 1.9446423053741455 -2.0883352756500244 255 176 0
-3.6828355789184570 1.2690360546112061 -1.4793314933776855 255 176 0
-3.9842097759246826 1.9456740617752075 -1.9366416931152344 255 176 0
-4.3020215034484863 1.8538953065872192 -1.6165052652359009 255 176 0
-3.5779438018798828 1.8401733636856079 -1.6440235376358032 255 176 0
-3.8749907016754150 1.9545428752899170 -1.7768290042877197 255 176 0
-3.9162046909332275 2.0057425498962402 -1.7306066751480103 255 176 0
-3.7916712760925293 1.9067927598953247 -1.6937907934188843 255 176 0
-3.7238397598266602 1.9556854963302612 -1.8952505588531494 255 176 0
-3.9805686473846436 1.8658233880996704 -1.7582821846008301 255 176 0
-3.8103466033935547 1.9406789541244507 -1.7930450439453125 255 176 0
-3.6333239078521729 1.9071506261825562 -1.6736115217208862 255 176 0
-3.6811556816101074 2.0242116451263428 -1.6766644716262817 255 176 0
-3.6306314468383789 1.9466090202331543 -1.7243635654449463 255 176 0
-4.1358275413513184 1.7490819692611694 -1.8235467672348022 255 176 0
-4.1430892944335938 1.7648748159408569 -1.8567254543304443 255 176 0
-3.7891414165496826 1.9439347982406616 -1.9029034376144409 255 176 0
-3.8028354644775391 2.0103378295898438 -1.9005912542343140 255 176 0
-4.0497360229492188 1.7721456289291382 -1.6390085220336914 255 176 0
-3.7361798286437988 1.4564208984375000 -1.4773969650268555 255 176 0
-4.1781926155090332 1.7912611961364746 -1.5031284093856812 255 176 0
-3.7060985565185547 1.8242218494415283 -1.8224977254867554 255 176 0
-3.7102296352386475 1.8868591785430908 -2.0480275154113770 255 176 0
-3.4065449237823486 1.0524746179580688 -1.5656622648239136 255 176 0
-4.0461330413818359 2.0653970241546631 -1.6978118419647217 255 176 0
-3.8400545120239258 2.1344799995422363 -1.6897568702697754 255 176 0
-3.5870099067687988 1.7211387157440186 -1.6450998783111572 255 176 0
-3.7162384986877441 2.0138783454895020 -1.9235864877700806 255 176 0
-3.7378807067871094 2.0033266544342041 -1.7110334634780884 255 176 0
-4.2037153244018555 1.7206622362136841 -1.6880748271942139 255 176 0
-3.7328786849975586 1.9265373945236206 -1.8305644989013672 255 176 0
-3.8030791282653809 1.9366047382354736 -2.0249125957489014 255 176 0
-3.0695881843566895 0.7208426594734192 -1.3546998500823975 255 176 0
-3.5818712711334229 1.7138655185699463 -1.6040027141571045 255 176 0
-4.4737739562988281 2.4543445110321045 -1.8112584352493286 255 176 0
-4.0048284530639648 1.9530340433120728 -1.6383044719696045 255 176 0
-4.1370010375976563 1.8418325185775757 -1.6053243875503540 255 176 0
-4.0480179786682129 1.7144527435302734 -1.5473284721374512 255 176 0
-4.2587914466857910 1.7572312355041504 -1.7087994813919067 255 176 0
-3.8136122226715088 1.9123997688293457 -1.6830246448516846 255 176 0
-4.2032394409179688 1.7663398981094360 -1.5538533926010132 255 176 0
-3.5227866172790527 1.1810373067855835 -1.5418049097061157 255 176 0
-4.1785812377929688 1.8504110574722290 -1.6126829385757446 255 176 0
-4.0033817291259766 1.8694236278533936 -2.0650994777679443 255 176 0
-4.1865248680114746 1.7597130537033081 -1.5491218566894531 255 176 0
-3.6138830184936523 1.8083945512771606 -1.6345179080963135 255 176 0
-3.8675181865692139 1.4912217855453491 -1.7655502557754517 255 176 0
-4.1502189636230469 1.7430894374847412 -1.9965637922286987 255 176 0
-4.1058292388916016 2.3802235126495361 -1.7984849214553833 255 176 0
-4.2188525199890137 1.7057315111160278 -1.7516875267028809 255 176 0
-3.7386782169342041 1.7891668081283569 -1.6163285970687866 255 176 0
-4.0747866630554199 1.5802947282791138 -1.7301793098449707 255 176 0
-3.9071004390716553 1.9455648660659790 -1.6435871124267578 255 176 0
-3.7988748550415039 1.8657358884811401 -1.7324305772781372 255 176 0
-3.6903953552246094 1.9944027662277222 -1.8352702856063843 255 176 0
-4.1133251190185547 1.6976968050003052 -1.4738708734512329 255 176 0
-3.7005290985107422 2.0422222614288330 -1.8430392742156982 255 176 0
-4.2161297798156738 1.7862291336059570 -1.5410407781600952 255 176 0
-3.1671097278594971 0.9352411627769470 -1.4367773532867432 255 176 0
-4.3197374343872070 1.9787713289260864 -1.5410989522933960 255 176 0
-3.2300939559936523 0.7919510006904602 -1.3689948320388794 255 176 0
-3.8027820587158203 1.8722285032272339 -1.6265238523483276 255 176 0
-3.7215638160705566 1.8095470666885376 -1.9576654434204102 255 176 0
-4.0333881378173828 1.6056861877441406 -1.4975907802581787 255 176 0
-4.0416045188903809 1.7548460960388184 -1.5443447828292847 255 176 0
-3.7663202285766602 1.7439856529235840 -1.5900437831878662 255 176 0
-3.9254755973815918 1.8359059095382690 -2.0406746864318848 255 176 0
-4.1185979843139648 1.6933281421661377 -1.5358219146728516 255 176 0
-4.2290992736816406 1.7667040824890137 -1.5069787502288818 255 176 0
-4.0422081947326660 1.6057027578353882 -1.5577096939086914 255 176 0
-4.2564711570739746 1.7096428871154785 -1.8333666324615479 255 176 0
-4.0635766983032227 1.7984956502914429 -1.5625180006027222 255 176 0
-4.0612368583679199 2.3065481185913086 -1.9951444864273071 255 176 0
-3.7661628723144531 1.9105796813964844 -2.0543246269226074 255 176 0
-4.1970748901367188 1.9049917459487915 -1.5280672311782837 255 176 0
-3.7784442901611328 2.1563308238983154 -1.9420807361602783 255 176 0
-4.2917757034301758 1.9870172739028931 -1.5738291740417480 255 176 0
-3.9114546775817871 1.8530374765396118 -1.6860101222991943 255 176 0
-3.6467008590698242 1.8297598361968994 -1.7398366928100586 255 176 0
-3.9630727767944336 1.9004361629486084 -1.8428150415420532 255 176 0
-4.1628146171569824 1.7623567581176758 -1.8383241891860962 255 176 0
-3.9197072982788086 1.8930757045745850 -2.0017218589782715 255 176 0
-3.6954555511474609 1.8458300828933716 -1.6991099119186401 255 176 0
-3.7659184932708740 2.0229606628417969 -1.9122098684310913 255 176 0
-3.4911785125732422 1.3755385875701904 -1.4831031560897827 255 176 0
-3.7488217353820801 1.9772676229476929 -1.8479690551757813 255 176 0
-3.6385200023651123 1.6978564262390137 -1.6287235021591187 255 176 0
-3.9994492530822754 1.8530935049057007 -1.8608245849609375 255 176 0
-3.7095158100128174 1.6502752304077148 -1.8686574697494507 255 176 0
-4.2549657821655273 1.9308001995086670 -1.7707532644271851 255 176 0
-4.3688693046569824 2.1527116298675537 -1.7870001792907715 255 176 0
-3.8937718868255615 1.9618558883666992 -1.9219515323638916 255 176 0
-3.9263045787811279 1.9328858852386475 -1.7479426860809326 255 176 0
-3.1817872524261475 0.6986398100852966 -1.4775829315185547 255 176 0
-4.1184258460998535 2.0922122001647949 -1.8168576955795288 255 176 0
-4.2680230140686035 2.0570647716522217 -1.9151915311813354 255 176 0
-3.8997032642364502 2.2714121341705322 -1.9408031702041626 255 176 0
-4.0093593597412109 2.1748747825622559 -1.7667320966720581 255 176 0
-4.2430596351623535 1.6836575269699097 -1.9271219968795776 255 176 0
-3.7914886474609375 1.9306585788726807 -2.1030766963958740 255 176 0
-4.3379883766174316 1.7353230714797974 -1.9774054288864136 255 176 0
-3.3199148178100586 1.1714887619018555 -1.5562263727188110 255 176 0
-3.3725140094757080 1.0303034782409668 -1.5051761865615845 255 176 0
-4.0985693931579590 1.8202900886535645 -1.6997004747390747 255 176 0
-3.8040926456451416 1.9837268590927124 -1.5852797031402588 255 176 0
-3.8592548370361328 2.1290585994720459 -1.9405065774917603 255 176 0
-3.8397936820983887 1.5415198802947998 -1.7291530370712280 255 176 0
-4.1839637756347656 1.8117541074752808 -2.0352971553802490 255 176 0
-4.3464903831481934 1.7986946105957031 -2.0332427024841309 255 176 0
-3.5585446357727051 1.6518793106079102 -1.8419601917266846 255 176 0
-3.4771616458892822 1.4948208332061768 -1.6761180162429810 255 176 0
-3.6163630485534668 1.9239470958709717 -1.7405093908309937 255 176 0
-3.7379245758056641 2.0144014358520508 -1.6106069087982178 255 176 0
-3.7872087955474854 1.7261935472488403 -1.8655635118484497 255 176 0
-4.0649614334106445 1.6205166578292847 -1.5791500806808472 255 176 0
-3.7541453838348389 1.9120624065399170 -1.8370169401168823 255 176 0
-3.2577826976776123 0.8463978171348572 -1.4947332143783569 255 176 0
-3.8321425914764404 1.5566413402557373 -1.4526355266571045 255 176 0
-3.1768999099731445 1.0301337242126465 -1.6223748922348022 255 176 0
-3.9142372608184814 1.6355651617050171 -1.9575576782226563 255 176 0
-3.6225988864898682 1.6581593751907349 -1.9348484277725220 255 176 0
-4.0282506942749023 1.7664104700088501 -1.6186504364013672 255 176 0
-4.2468276023864746 1.7865735292434692 -2.0146336555480957 255 176 0
-4.0451040267944336 1.8276425600051880 -1.6310757398605347 255 176 0
-3.6118338108062744 1.8663427829742432 -1.6111553907394409 255 176 0
-3.8959789276123047 1.9308540821075439 -1.8606685400009155 255 176 0
-4.0289354324340820 1.5814136266708374 -1.5335125923156738 255 176 0
-4.0629982948303223 1.8557363748550415 -1.8080555200576782 255 176 0
-4.2569756507873535 1.6606216430664063 -1.9207608699798584 255 176 0
-4.1887116432189941 2.0174505710601807 -2.0783851146697998 255 176 0
-3.9966049194335938 1.7773755788803101 -1.6702321767807007 255 176 0
-3.3884680271148682 1.3764978647232056 -1.7089459896087646 255 176 0
-3.6150410175323486 1.1190087795257568 -1.4311406612396240 255 176 0
-4.2007632255554199 1.9819189310073853 -1.9520095586776733 255 176 0
-4.0441112518310547 1.7623704671859741 -1.8784161806106567 255 176 0
-3.8810050487518311 1.9282087087631226 -1.9834970235824585 255 176 0
-4.1566576957702637 1.7494313716888428 -1.4978915452957153 255 176 0
-3.8335757255554199 1.9851011037826538 -1.9208278656005859 255 176 0
-4.0520234107971191 1.8360052108764648 -1.8635442256927490 255 176 0
-3.9709935188293457 1.8425937891006470 -1.7361739873886108 255 176 0
-4.0936222076416016 1.6901385784149170 -1.4903476238250732 255 176 0
-4.1077585220336914 1.7967029809951782 -1.8129023313522339 255 176 0
-3.7048025131225586 2.0868210792541504 -1.6157481670379639 255 176 0
-4.0442690849304199 1.7945218086242676 -1.8956989049911499 255 176 0
-3.3675112724304199 0.8889525532722473 -1.5179592370986938 255 176 0
-3.3497495651245117 1.1175698041915894 -1.6117556095123291 255 176 0
-3.8592519760131836 2.0352005958557129 -1.7480388879776001 255 176 0
-4.0990447998046875 1.8363264799118042 -1.5927122831344604 255 176 0
-3.8459537029266357 1.9820083379745483 -1.8171689510345459 255 176 0
-3.7305028438568115 1.9652386903762817 -1.9798344373703003 255 176 0
-3.9531221389770508 1.6649597883224487 -1.5127704143524170 255 176 0
-3.9085128307342529 2.0149137973785400 -1.7276552915573120 255 176 0
-3.7976782321929932 1.8583190441131592 -1.6269193887710571 255 176 0
-3.7651934623718262 1.9703816175460815 -1.7966636419296265 255 176 0
-4.2302303314208984 1.7166386842727661 -1.7438670396804810 255 176 0
-4.0476188659667969 1.8580135107040405 -1.8408964872360229 255 176 0
-4.0737395286560059 1.7431693077087402 -1.8136810064315796 255 176 0
-4.0836687088012695 1.7772978544235229 -1.6425818204879761 255 176 0
-3.5686688423156738 1.3737477064132690 -1.8926825523376465 255 176 0
-4.0620770454406738 1.7985935211181641 -1.9415111541748047 255 176 0
-4.2211723327636719 1.7438743114471436 -1.6646151542663574 255 176 0
-3.7617719173431396 1.8572012186050415 -1.8242796659469604 255 176 0
-4.1953983306884766 1.6541588306427002 -1.9050130844116211 255 176 0
-4.3316912651062012 2.4787650108337402 -1.8540380001068115 255 176 0
-3.6429185867309570 1.4251724481582642 -1.4400484561920166 255 176 0
-3.8264205455780029 1.8933322429656982 -1.9822258949279785 255 176 0
-4.0331301689147949 2.4117546081542969 -1.8163620233535767 255 176 0
-3.9820787906646729 1.9025896787643433 -1.8967716693878174 255 176 0
-4.0412626266479492 1.8240470886230469 -1.9259105920791626 255 176 0
-4.0599980354309082 1.8934496641159058 -1.9196995496749878 255 176 0
-3.8567066192626953 1.9690508842468262 -1.7310836315155029 255 176 0
-3.7831649780273438 1.9954556226730347 -1.8719443082809448 255 176 0
-4.0304870605468750 1.7557210922241211 -1.8925166130065918 255 176 0
-3.8908770084381104 2.0866856575012207 -1.9463090896606445 255 176 0
-4.2395448684692383 1.6863050460815430 -1.8282002210617065 255 176 0
-4.0290699005126953 1.7976244688034058 -1.9165440797805786 255 176 0
-4.0152306556701660 1.6269650459289551 -1.5320115089416504 255 176 0
-3.7144005298614502 2.0864996910095215 -1.7825027704238892 255 176 0
-3.6470391750335693 1.6599702835083008 -1.8102509975433350 255 176 0
-3.8490755558013916 2.2899334430694580 -1.7821074724197388 255 176 0
-4.1181068420410156 1.7824897766113281 -1.7341803312301636 255 176 0
-3.9200348854064941 1.9407086372375488 -1.9735499620437622 255 176 0
-4.3638510704040527 2.3366882801055908 -2.1685864925384521 255 176 0
-4.1798205375671387 1.8090717792510986 -1.4741654396057129 255 176 0
-4.1746530532836914 1.8397603034973145 -1.7328550815582275 255 176 0
-3.7678816318511963 2.0000472068786621 -2.0894794464111328 255 176 0
-3.7864441871643066 1.1623240709304810 -1.4663335084915161 255 176 0
-3.9371135234832764 2.1820631027221680 -1.9485161304473877 255 176 0
-4.1538820266723633 1.5921629667282104 -1.8855556249618530 255 176 0
-3.7074050903320313 1.3057757616043091 -1.5603829622268677 255 176 0
-3.9073228836059570 1.6891707181930542 -1.7551702260971069 255 176 0
-3.8710415363311768 1.9746128320693970 -1.9312114715576172 255 176 0
-3.1080565452575684 0.7515351772308350 -1.4638228416442871 255 176 0
-3.6939706802368164 1.9071679115295410 -2.0047850608825684 255 176 0
-4.0604791641235352 1.8285710811614990 -1.8475713729858398 255 176 0
-3.7047998905181885 1.9418040513992310 -1.6317456960678101 255 176 0
-3.8337116241455078 1.8352494239807129 -1.8960980176925659 255 176 0
-4.2001085281372070 2.0790865421295166 -1.6894561052322388 255 176 0
-4.1699280738830566 1.6025898456573486 -1.9219968318939209 255 176 0
-4.1205658912658691 1.7661753892898560 -2.0086004734039307 255 176 0
-4.1006898880004883 1.8190652132034302 -1.8365367650985718 255 176 0
-3.7536447048187256 1.9462485313415527 -1.8586026430130005 255 176 0
-4.3130950927734375 1.9527126550674438 -1.7166433334350586 255 176 0
-3.7733047008514404 1.9994798898696899 -1.8553898334503174 255 176 0
-4.1140446662902832 1.8388887643814087 -1.8525710105895996 255 176 0
-3.8669054508209229 2.0592374801635742 -1.9516913890838623 255 176 0
-4.1518735885620117 1.6710057258605957 -1.6936143636703491 255 176 0
-4.0183949470520020 1.8770776987075806 -1.6721503734588623 255 176 0
-3.4515514373779297 1.3409649133682251 -1.5622162818908691 255 176 0
-3.8259570598602295 2.2846357822418213 -1.8416788578033447 255 176 0
-4.2972888946533203 1.7363430261611938 -1.9974696636199951 255 176 0
-4.1823430061340332 1.7228999137878418 -1.6273212432861328 255 176 0
-4.1442356109619141 2.2323689460754395 -1.7247151136398315 255 176 0
-4.2271585464477539 1.7018650770187378 -1.7469990253448486 255 176 0
-3.7819235324859619 1.8651596307754517 -2.0607156753540039 255 176 0
-4.2751698493957520 1.8219752311706543 -1.5974745750427246 255 176 0
-4.2593483924865723 1.7803057432174683 -1.6607275009155273 255 176 0
-4.0804486274719238 1.7564364671707153 -1.4796898365020752 255 176 0
-4.2532129287719727 1.6599442958831787 -1.9232074022293091 255 176 0
-3.7926468849182129 2.1024787425994873 -2.0447545051574707 255 176 0
-3.9108603000640869 1.9301341772079468 -1.7734178304672241 255 176 0
-4.2474961280822754 1.6883659362792969 -1.8476569652557373 255 176 0
-4.2411541938781738 1.7339525222778320 -1.7268292903900146 255 176 0
-4.0783224105834961 1.7498512268066406 -1.7560665607452393 255 176 0
-4.0593547821044922 2.0469312667846680 -2.0587749481201172 255 176 0
-4.1711492538452148 2.7445738315582275 -2.1679503917694092 255 176 0
-4.1398329734802246 1.6251963376998901 -1.7647951841354370 255 176 0
-3.8146138191223145 1.9997942447662354 -1.9132808446884155 255 176 0
-3.8622274398803711 2.1090347766876221 -1.8432331085205078 255 176 0
-4.0866184234619141 1.7875907421112061 -1.7905821800231934 255 176 0
-3.8310790061950684 1.9504636526107788 -1.9222335815429688 255 176 0
-3.4411499500274658 1.5034757852554321 -1.8274523019790649 255 176 0
-3.8176629543304443 1.8085780143737793 -2.0259740352630615 255 176 0
-3.8794202804565430 1.9484629631042480 -1.8249548673629761 255 176 0
-3.9605324268341064 1.9073449373245239 -1.7284858226776123 255 176 0
-4.0626444816589355 1.7099362611770630 -1.6581602096557617 255 176 0
-4.1901903152465820 2.4579606056213379 -1.8107981681823730 255 176 0
-3.8894331455230713 1.9608333110809326 -1.7214806079864502 255 176 0
-4.3932566642761230 2.1756694316864014 -1.9898076057434082 255 176 0
-3.7239518165588379 2.0360729694366455 -1.9071626663208008 255 176 0
-4.2921738624572754 1.6912384033203125 -1.9649235010147095 255 176 0
-3.8724384307861328 1.9697396755218506 -1.7124593257904053 255 176 0
-3.9370582103729248 1.9133406877517700 -1.7742687463760376 255 176 0
-3.9818360805511475 1.9108641147613525 -1.6659984588623047 255 176 0
-4.3349771499633789 1.9755733013153076 -1.5427790880203247 255 176 0
-4.0364885330200195 1.8853876590728760 -1.6236265897750854 255 176 0
-3.9964842796325684 1.8789489269256592 -1.7732344865798950 255 176 0
-3.9512264728546143 1.6327605247497559 -1.4701837301254272 255 176 0
-3.9536702632904053 1.9398447275161743 -1.6300797462463379 255 176 0
-3.5530714988708496 1.3228530883789063 -1.4368461370468140 255 176 0
-3.7686569690704346 1.9732899665832520 -1.7858152389526367 255 176 0
-3.7586073875427246 2.0520377159118652 -1.9983830451965332 255 176 0
-3.9237747192382813 1.9011020660400391 -1.8616191148757935 255 176 0
-4.0326442718505859 1.8189090490341187 -1.6894834041595459 255 176 0
-3.7585933208465576 1.9692373275756836 -1.8019104003906250 255 176 0
-4.0359029769897461 1.8615360260009766 -1.6715687513351440 255 176 0
-4.1816463470458984 1.8303115367889404 -1.5055471658706665 255 176 0
-3.8301720619201660 1.9632486104965210 -1.8963305950164795 255 176 0
-4.0187172889709473 1.7641143798828125 -2.0048849582672119 255 176 0
-4.2902979850769043 1.8823940753936768 -2.0817580223083496 255 176 0
-4.1019878387451172 1.8293570280075073 -1.5141770839691162 255 176 0
-4.0924654006958008 1.8778607845306396 -1.5540155172348022 255 176 0
-4.0199356079101563 1.9340889453887939 -1.6598582267761230 255 176 0
-4.2758350372314453 1.6586930751800537 -1.9372223615646362 255 176 0
-4.0581135749816895 2.0566885471343994 -1.7330553531646729 255 176 0
-3.9183044433593750 1.9474442005157471 -1.6963617801666260 255 176 0
-3.9091105461120605 2.0091540813446045 -1.6833704710006714 255 176 0
-4.1271157264709473 1.7433542013168335 -1.9964972734451294 255 176 0
-4.2021622657775879 1.8174786567687988 -1.7476173639297485 255 176 0
-4.0658936500549316 1.8495056629180908 -1.6621533632278442 255 176 0
-3.7659776210784912 1.9034899473190308 -1.8387537002563477 255 176 0
-4.1773557662963867 1.7456265687942505 -1.4789795875549316 255 176 0
-3.8122546672821045 1.9952759742736816 -1.5892751216888428 255 176 0
-3.8523716926574707 1.9490790367126465 -1.7103362083435059 255 176 0
-3.8667032718658447 1.9582788944244385 -1.6890841722488403 255 176 0
-4.2293453216552734 1.6369470357894897 -1.9288244247436523 255 176 0
-3.8392901420593262 1.9469627141952515 -1.7863671779632568 255 176 0
-3.8293485641479492 1.9509112834930420 -1.7439620494842529 255 176 0
-4.1522488594055176 1.8485422134399414 -1.8514357805252075 255 176 0
-3.8338487148284912 2.0160861015319824 -2.1409323215484619 255 176 0
-3.5942039489746094 1.3188724517822266 -1.7173699140548706 255 176 0
-3.9312131404876709 1.8822182416915894 -1.9035325050354004 255 176 0
-4.0903801918029785 2.6167111396789551 -2.1279914379119873 255 176 0
-3.9245343208312988 1.9296898841857910 -1.7699444293975830 255 176 0
-4.1026306152343750 1.8230279684066772 -1.7989081144332886 255 176 0
-4.2227306365966797 1.7361885309219360 -1.6656128168106079 255 176 0
-4.2356796264648438 1.7011140584945679 -1.7908616065979004 255 176 0
-4.2418112754821777 1.6780984401702881 -1.8494827747344971 255 176 0
-4.1911091804504395 1.7527525424957275 -1.5753823518753052 255 176 0
-4.2427129745483398 1.6668543815612793 -1.8838292360305786 255 176 0
-3.8613409996032715 1.9384586811065674 -2.0078239440917969 255 176 0
-4.0150685310363770 1.8448929786682129 -1.9400529861450195 255 176 0
-3.9041891098022461 2.3706276416778564 -1.9248346090316772 255 176 0
-3.8475449085235596 1.9812748432159424 -1.7487534284591675 255 176 0
-3.8045899868011475 2.0893409252166748 -2.0495128631591797 255 176 0
-4.2114691734313965 1.8706535100936890 -1.5020822286605835 255 176 0
-3.5906600952148438 1.7796095609664917 -1.7118710279464722 255 176 0
-4.0234942436218262 1.9716826677322388 -1.8148809671401978 255 176 0
-4.2073173522949219 1.7930427789688110 -1.5068498849868774 255 176 0
-3.7674663066864014 2.0106136798858643 -2.0687081813812256 255 176 0
-3.3409304618835449 1.3634275197982788 -1.5587110519409180 255 176 0
-3.9496183395385742 1.8691389560699463 -1.9254565238952637 255 176 0
-4.1308531761169434 1.8213329315185547 -1.6490255594253540 255 176 0
-3.9647028446197510 1.8543686866760254 -1.9089558124542236 255 176 0
-3.8529019355773926 1.9641637802124023 -1.7447266578674316 255 176 0
-3.8606393337249756 1.9291168451309204 -1.9808382987976074 255 176 0
-3.9972779750823975 1.8398834466934204 -1.8922721147537231 255 176 0
-3.8345072269439697 2.1406371593475342 -2.0879361629486084 255 176 0
-3.7488453388214111 1.9785263538360596 -1.8006932735443115 255 176 0
-4.0076107978820801 1.8633335828781128 -1.7626198530197144 255 176 0
-4.2713561058044434 1.8855936527252197 -1.5395561456680298 255 176 0
-4.1303992271423340 1.8430052995681763 -1.5791704654693604 255 176 0
-3.8843832015991211 2.0491926670074463 -2.1481471061706543 255 176 0
-3.8642318248748779 1.9426932334899902 -1.9774975776672363 255 176 0
-3.6487932205200195 1.9913835525512695 -1.6133489608764648 255 176 0
-4.5254435539245605 2.1375269889831543 -2.0207397937774658 255 176 0
-4.0604386329650879 1.8634284734725952 -1.8068712949752808 255 176 0
-4.0342483520507813 1.8582258224487305 -1.8041115999221802 255 176 0
-4.1972875595092773 1.7743291854858398 -1.5291414260864258 255 176 0
-4.0389580726623535 2.1822190284729004 -2.0484936237335205 255 176 0
-3.7072610855102539 2.1121215820312500 -1.6648604869842529 255 176 0
-3.7108955383300781 2.0413830280303955 -1.6203348636627197 255 176 0
-3.6774377822875977 2.0139601230621338 -1.6598752737045288 255 176 0
-4.0478830337524414 1.8808174133300781 -1.6589059829711914 255 176 0
-3.8030250072479248 2.1813108921051025 -1.9169831275939941 255 176 0
-4.1482367515563965 1.6609078645706177 -1.6642177104949951 255 176 0
-3.8871154785156250 1.8832746744155884 -1.9344040155410767 255 176 0
-4.2017073631286621 1.7466934919357300 -1.6151175498962402 255 176 0
-3.8118367195129395 2.1941802501678467 -1.9410152435302734 255 176 0
-3.7006223201751709 2.0517170429229736 -1.8705995082855225 255 176 0
-4.0046977996826172 1.8696823120117188 -1.8167243003845215 255 176 0
-4.0533065795898438 2.0146324634552002 -1.5632357597351074 255 176 0
-3.8529679775238037 1.9671866893768311 -1.8727394342422485 255 176 0
-3.8330826759338379 1.7936311960220337 -1.8846750259399414 255 176 0
-4.1136679649353027 2.0050058364868164 -2.0236766338348389 255 176 0
-3.9848005771636963 1.9154464006423950 -1.9090075492858887 255 176 0
-3.7863004207611084 2.0016758441925049 -1.7621161937713623 255 176 0
-4.0435872077941895 1.9045741558074951 -1.8147885799407959 255 176 0
-3.2615840435028076 1.0785963535308838 -1.4425767660140991 255 176 0
-3.9731235504150391 1.9009586572647095 -1.7542394399642944 255 176 0
-3.9066493511199951 1.8763624429702759 -1.6621940135955811 255 176 0
-3.9157650470733643 1.9728169441223145 -2.0128443241119385 255 176 0
-3.8700611591339111 1.9446114301681519 -1.7034431695938110 255 176 0
-3.8780837059020996 1.9521542787551880 -1.7712972164154053 255 176 0
-3.9446268081665039 1.8921811580657959 -1.8613233566284180 255 176 0
-4.2676987648010254 1.7043621540069580 -1.8223030567169189 255 176 0
