//X Y Z R G B
705
-3.5358753204345703 0.4738700091838837 2.2552986145019531 64 128 99
-3.2014002799987793 0.1660607010126114 1.6803352832794189 64 128 99
-3.4549717903137207 -0.1696845889091492 1.7779868841171265 64 128 99
-3.2236161231994629 0.2530200481414795 1.8298892974853516 64 128 99
-3.4084436893463135 -0.0220096763223410 1.6039084196090698 64 128 99
-3.4351682662963867 0.0638766586780548 2.3919985294342041 64 128 99
-3.6033580303192139 0.5984060764312744 2.2103331089019775 64 128 99
-3.5952005386352539 0.0433150343596935 1.9728025197982788 64 128 99
-3.1694276332855225 -0.1475708037614822 1.3585208654403687 64 128 99
-3.6097602844238281 -0.1032998338341713 1.9163620471954346 64 128 99
-3.7677328586578369 0.4707308113574982 2.0828435420989990 64 128 99
-3.4628689289093018 0.5656297206878662 2.3430614471435547 64 128 99
-3.3487429618835449 0.3803077042102814 1.9890853166580200 64 128 99
-3.3130795955657959 0.3697750866413116 1.9236571788787842 64 128 99
-3.4946970939636230 0.3137204945087433 1.9994871616363525 64 128 99
-3.7022607326507568 0.0921312421560287 2.1061799526214600 64 128 99
-3.3138518333435059 0.1169456988573074 2.2564094066619873 64 128 99
-3.7003948688507080 -0.0426917038857937 2.1060755252838135 64 128 99
-3.8210079669952393 0.0301641598343849 2.1503732204437256 64 128 99
-3.9427657127380371 0.6707633733749390 2.3180205821990967 64 128 99
-3.7637739181518555 0.0677833408117294 2.0016739368438721 64 128 99
-3.1953628063201904 -0.1177173703908920 1.3938226699829102 64 128 99
-3.1718230247497559 -0.2908009886741638 1.1366102695465088 64 128 99
-3.7910861968994141 0.1220088824629784 2.1508231163024902 64 128 99
-3.1786603927612305 -0.0260484330356121 2.0290653705596924 64 128 99
-2.9514517784118652 -0.1806245595216751 1.5823560953140259 64 128 99
-3.4089260101318359 0.3947482407093048 2.2538993358612061 64 128 99
-3.1571073532104492 -0.0325141586363316 2.2895689010620117 64 128 99
-3.6770234107971191 0.7113591432571411 2.2108905315399170 64 128 99
-3.1236834526062012 -0.0836205855011940 1.7380576133728027 64 128 99
-3.1920018196105957 0.4061444699764252 1.8527339696884155 64 128 99
-3.8428711891174316 0.2830532789230347 2.0909512042999268 64 128 99
-4.1830902099609375 0.3666859865188599 2.7447109222412109 64 128 99
-3.7051999568939209 -0.0457016192376614 2.0758383274078369 64 128 99
-3.4692041873931885 -0.0164728444069624 1.6836304664611816 64 128 99
-3.6136548519134521 0.0528395771980286 1.7437494993209839 64 128 99
-3.3863043785095215 0.0347549915313721 2.5024456977844238 64 128 99
-3.5631027221679688 0.5013149380683899 2.0849485397338867 64 128 99
-3.5832946300506592 0.2436320334672928 2.1978607177734375 64 128 99
-3.7794079780578613 0.0527333691716194 2.3290131092071533 64 128 99
-3.3792288303375244 0.3858609795570374 2.0491731166839600 64 128 99
-3.3937759399414063 0.4587843716144562 2.1638581752777100 64 128 99
-3.4415338039398193 0.2167204618453979 2.3407411575317383 64 128 99
-3.4175751209259033 0.1777580678462982 2.1874494552612305 64 128 99
-3.3535790443420410 0.2001264840364456 2.2719054222106934 64 128 99
-3.4337604045867920 0.2730231881141663 1.6954770088195801 64 128 99
-3.4672982692718506 0.3847061991691589 1.8944655656814575 64 128 99
-3.4076969623565674 0.4297648370265961 2.1822459697723389 64 128 99
-3.5153944492340088 0.1283563524484634 2.2599387168884277 64 128 99
-3.2694623470306396 0.3302951753139496 2.1146204471588135 64 128 99
-3.5438637733459473 0.3020293712615967 2.1245405673980713 64 128 99
-3.3882789611816406 0.5026757121086121 2.1970689296722412 64 128 99
-3.3967146873474121 0.3456104397773743 2.1171259880065918 64 128 99
-3.1920616626739502 -0.0149984695017338 2.1692082881927490 64 128 99
-3.2017316818237305 -0.1944468170404434 1.3153694868087769 64 128 99
-3.6800520420074463 -0.0316862203180790 2.4554190635681152 64 128 99
-3.8061895370483398 -0.0256777070462704 2.4458651542663574 64 128 99
-3.2741372585296631 0.1039201468229294 2.0831365585327148 64 128 99
-3.4180445671081543 -0.0558941625058651 1.9678143262863159 64 128 99
-3.9988679885864258 0.6797473430633545 2.3792905807495117 64 128 99
-3.4071588516235352 0.2113049626350403 2.5679225921630859 64 128 99
-3.3876981735229492 -0.1365079730749130 1.4519594907760620 64 128 99
-3.0097486972808838 -0.2457285523414612 1.1684427261352539 64 128 99
-3.8179464340209961 -0.0293971877545118 2.3950285911560059 64 128 99
-3.6988217830657959 -0.0427368581295013 2.3910489082336426 64 128 99
-3.1586949825286865 -0.0094143254682422 1.6476325988769531 64 128 99
-3.9225170612335205 0.3747190237045288 2.1438550949096680 64 128 99
-3.7671985626220703 0.0392105504870415 1.9867231845855713 64 128 99
-3.8281793594360352 -0.0674589276313782 2.5910837650299072 64 128 99
-3.4264223575592041 0.2044292241334915 2.6114821434020996 64 128 99
-3.4352138042449951 0.2782734036445618 2.5988516807556152 64 128 99
-3.5203840732574463 0.4851893186569214 2.2563548088073730 64 128 99
-3.2421252727508545 0.3712823390960693 2.0453438758850098 64 128 99
-3.2450892925262451 0.3360470831394196 2.0137026309967041 64 128 99
-2.9940090179443359 -0.1264319866895676 1.3375785350799561 64 128 99
-4.0194954872131348 0.0841906741261482 2.4794719219207764 64 128 99
-3.8786621093750000 0.7986540794372559 2.3584585189819336 64 128 99
-3.0450289249420166 -0.1954314559698105 1.1317086219787598 64 128 99
-3.9792339801788330 0.1411750018596649 2.1302342414855957 64 128 99
-3.9487426280975342 0.8049937486648560 2.4192876815795898 64 128 99
-3.2990765571594238 0.3374624550342560 2.2375118732452393 64 128 99
-4.0102586746215820 0.5826091170310974 2.3661074638366699 64 128 99
-3.5622100830078125 0.3892154693603516 2.3721678256988525 64 128 99
-3.2987208366394043 0.2315532565116882 2.1896767616271973 64 128 99
-3.7002682685852051 0.9079728722572327 2.4380910396575928 64 128 99
-3.0901224613189697 -0.3354076147079468 1.2259001731872559 64 128 99
-3.8129169940948486 0.0828093811869621 2.2056782245635986 64 128 99
-3.3340456485748291 0.2197361141443253 2.1367957592010498 64 128 99
-3.3117082118988037 0.2048124969005585 2.2270004749298096 64 128 99
-3.3526942729949951 0.0960177481174469 2.3003106117248535 64 128 99
-4.0151863098144531 0.5762489438056946 2.4058966636657715 64 128 99
-3.6365556716918945 0.0648463442921638 2.2771570682525635 64 128 99
-3.3680727481842041 0.2318730801343918 2.4264552593231201 64 128 99
-3.5559015274047852 0.3234884738922119 2.0185685157775879 64 128 99
-3.5388526916503906 0.2372248917818069 2.4981038570404053 64 128 99
-3.3820545673370361 0.3389420211315155 1.9459596872329712 64 128 99
-4.1122674942016602 0.4657217264175415 2.5127668380737305 64 128 99
-3.0454399585723877 -0.0854098200798035 1.5080095529556274 64 128 99
-3.3477571010589600 -0.1640908867120743 1.5043214559555054 64 128 99
-3.2945296764373779 0.2528460025787354 2.0824453830718994 64 128 99
-3.1615009307861328 -0.0052892640233040 1.4523458480834961 64 128 99
-3.1550049781799316 0.0067531298846006 1.4835565090179443 64 128 99
-4.0407142639160156 0.6177642941474915 2.3857939243316650 64 128 99
-3.4395158290863037 -0.2449395954608917 1.2939851284027100 64 128 99
-3.5480618476867676 0.5210232138633728 2.0997703075408936 64 128 99
-3.2303910255432129 0.1445937752723694 2.1090199947357178 64 128 99
-3.0077946186065674 -0.1527888327836990 1.5354841947555542 64 128 99
-3.6030976772308350 0.2970796823501587 2.3926806449890137 64 128 99
-3.4755144119262695 0.2458346635103226 2.4741740226745605 64 128 99
-3.3715167045593262 0.0453900918364525 1.9897643327713013 64 128 99
-3.2435259819030762 0.4158554673194885 2.0945827960968018 64 128 99
-3.9656326770782471 0.4061072468757629 2.3174228668212891 64 128 99
-3.4378633499145508 0.5103547573089600 2.2324473857879639 64 128 99
-3.4415938854217529 0.5026372671127319 2.2066383361816406 64 128 99
-3.4206748008728027 0.3033670485019684 2.3837361335754395 64 128 99
-3.8323867321014404 0.2491656541824341 2.1918992996215820 64 128 99
-3.4136536121368408 0.5105575323104858 2.2805988788604736 64 128 99
-3.6073050498962402 0.1645728051662445 2.4659752845764160 64 128 99
-3.6853458881378174 0.6102480292320251 2.1399564743041992 64 128 99
-3.3647239208221436 0.2822788059711456 1.9519715309143066 64 128 99
-3.2757189273834229 0.2330209314823151 2.1888165473937988 64 128 99
-3.6234731674194336 0.7431817650794983 2.1912336349487305 64 128 99
-3.4172580242156982 0.2493173778057098 1.8858041763305664 64 128 99
-3.9741158485412598 0.8409037590026855 2.6184401512145996 64 128 99
-4.0948014259338379 0.7821121215820313 2.5023550987243652 64 128 99
-3.6433484554290771 0.3521505892276764 2.2312605381011963 64 128 99
-3.3134500980377197 0.0847069099545479 2.1577379703521729 64 128 99
-3.6298210620880127 0.3569144606590271 1.9088571071624756 64 128 99
-3.9167463779449463 0.8747758865356445 2.4614596366882324 64 128 99
-3.8411021232604980 0.7782889008522034 2.3105716705322266 64 128 99
-3.5879533290863037 0.7704605460166931 2.2634696960449219 64 128 99
-3.6513881683349609 0.3442457914352417 2.3310461044311523 64 128 99
-3.4096720218658447 0.6593245863914490 2.1567850112915039 64 128 99
-3.9481999874114990 0.1515468657016754 2.3046858310699463 64 128 99
-3.4005398750305176 0.4245676398277283 2.2317416667938232 64 128 99
-3.3565101623535156 0.0336579121649265 2.1722903251647949 64 128 99
-4.0853009223937988 0.9760338068008423 2.6405513286590576 64 128 99
-3.9048478603363037 1.0235971212387085 2.6000525951385498 64 128 99
-3.5082957744598389 0.3055410683155060 1.9774032831192017 64 128 99
-4.0072026252746582 0.1042253971099854 2.4563319683074951 64 128 99
-3.2352879047393799 0.0505968257784843 1.7585670948028564 64 128 99
-2.9263660907745361 -0.1959968656301498 1.1381517648696899 64 128 99
-4.1532397270202637 0.5860081315040588 2.5328199863433838 64 128 99
-3.3868896961212158 0.5799890756607056 2.0991590023040771 64 128 99
-3.2592914104461670 0.4758953750133514 2.0041220188140869 64 128 99
-3.3404023647308350 0.2943597137928009 1.9202058315277100 64 128 99
-3.2432680130004883 0.2564676702022552 2.1600430011749268 64 128 99
-4.0625619888305664 0.5780791640281677 2.4117338657379150 64 128 99
-3.2868278026580811 0.1740984469652176 2.1726388931274414 64 128 99
-3.7103250026702881 0.3070054054260254 2.4747972488403320 64 128 99
-3.5955035686492920 0.0049370080232620 2.2745461463928223 64 128 99
-3.6585829257965088 0.3389022052288055 2.3933112621307373 64 128 99
-3.4834840297698975 0.2588075399398804 2.5454332828521729 64 128 99
-3.3532865047454834 0.5260941982269287 2.0172679424285889 64 128 99
-3.1867718696594238 -0.1055579036474228 1.4106512069702148 64 128 99
-3.7141692638397217 -0.0019234815845266 2.6163485050201416 64 128 99
-3.5981488227844238 0.3490744829177856 2.2414054870605469 64 128 99
-3.2424345016479492 0.2797790467739105 2.0554988384246826 64 128 99
-3.6947717666625977 0.0701230466365814 2.0993061065673828 64 128 99
-3.3975305557250977 0.6247493624687195 2.2089481353759766 64 128 99
-4.7549004554748535 1.8565471172332764 3.9798998832702637 64 128 99
-3.5041971206665039 0.2619785070419312 2.4403626918792725 64 128 99
-2.9930655956268311 -0.1923911422491074 1.4042224884033203 64 128 99
-3.2365217208862305 0.0124369980767369 1.9430125951766968 64 128 99
-3.7206735610961914 -0.0785728469491005 2.1834096908569336 64 128 99
-3.6291377544403076 0.1809386610984802 2.5054900646209717 64 128 99
-3.8702747821807861 0.0211219638586044 2.6804282665252686 64 128 99
1.4968069791793823 -4.5339412689208984 4.7064142227172852 64 128 99
1.7981067895889282 -4.4099493026733398 4.6248836517333984 64 128 99
1.9144927263259888 -4.4077515602111816 4.8417034149169922 64 128 99
1.7685405015945435 -4.5904116630554199 4.7149043083190918 64 128 99
1.4422730207443237 -4.4385066032409668 4.7627363204956055 64 128 99
1.4498164653778076 -4.4094953536987305 4.7872395515441895 64 128 99
1.5358891487121582 -4.4631237983703613 4.6633582115173340 64 128 99
1.5417360067367554 -4.4876556396484375 4.6589188575744629 64 128 99
1.8352950811386108 -4.4813566207885742 4.6842780113220215 64 128 99
1.8449442386627197 -4.4960436820983887 4.6854734420776367 64 128 99
1.7456040382385254 -4.1911597251892090 4.7040004730224609 64 128 99
1.6423027515411377 -4.5257163047790527 3.9603376388549805 64 128 99
1.8958694934844971 -4.1500239372253418 6.3778800964355469 64 128 99
1.6289000511169434 -4.3598093986511230 4.8059377670288086 64 128 99
1.5388581752777100 -4.5344572067260742 4.3565268516540527 64 128 99
1.6622084379196167 -4.5772891044616699 4.7556228637695313 64 128 99
1.8917249441146851 -4.4157037734985352 4.5562376976013184 64 128 99
1.5259044170379639 -4.4288759231567383 4.6503200531005859 64 128 99
1.8983439207077026 -4.4223089218139648 4.8991322517395020 64 128 99
1.7215780019760132 -4.2077631950378418 4.7754149436950684 64 128 99
1.8575843572616577 -4.4760551452636719 4.6633772850036621 64 128 99
1.5585327148437500 -4.4646315574645996 4.6488490104675293 64 128 99
1.5734505653381348 -4.4529342651367188 4.6380252838134766 64 128 99
1.7985858917236328 -4.4340176582336426 4.6573982238769531 64 128 99
1.6631866693496704 -4.4714465141296387 4.6608529090881348 64 128 99
1.6582864522933960 -4.2261710166931152 4.7732267379760742 64 128 99
1.7316395044326782 -4.5260324478149414 4.6925802230834961 64 128 99
2.0875294208526611 -4.2461533546447754 6.3744354248046875 64 128 99
1.5010552406311035 -4.2708458900451660 4.7946133613586426 64 128 99
1.4938526153564453 -4.5797538757324219 3.9156477451324463 64 128 99
1.8128261566162109 -4.6410269737243652 4.8589668273925781 64 128 99
1.5818353891372681 -4.2158937454223633 4.6935691833496094 64 128 99
1.5734412670135498 -4.3501963615417480 4.6542053222656250 64 128 99
1.6713117361068726 -4.5750837326049805 4.7009282112121582 64 128 99
1.8307770490646362 -4.4117994308471680 4.8177919387817383 64 128 99
1.7722499370574951 -4.4878387451171875 4.0699710845947266 64 128 99
1.8252519369125366 -4.2426972389221191 4.8050642013549805 64 128 99
1.4991616010665894 -4.2872424125671387 4.1300630569458008 64 128 99
1.8078329563140869 -4.4689235687255859 4.6690483093261719 64 128 99
1.8568891286849976 -4.5204281806945801 4.7075877189636230 64 128 99
1.7017294168472290 -4.4232125282287598 4.8270564079284668 64 128 99
1.7892998456954956 -4.5630173683166504 4.7133469581604004 64 128 99
1.8704266548156738 -4.5028076171875000 4.7450671195983887 64 128 99
1.8401849269866943 -4.5998263359069824 4.7768926620483398 64 128 99
1.5930926799774170 -4.3225817680358887 4.6069359779357910 64 128 99
1.5158579349517822 -4.3689131736755371 3.7213723659515381 64 128 99
1.8566709756851196 -4.2977271080017090 6.1231164932250977 64 128 99
1.8656471967697144 -4.4456048011779785 4.5042719841003418 64 128 99
1.5426826477050781 -4.4792528152465820 4.6400599479675293 64 128 99
1.8431521654129028 -4.4643440246582031 4.7821049690246582 64 128 99
1.7450217008590698 -4.5354881286621094 4.6008973121643066 64 128 99
1.7664620876312256 -4.5191769599914551 4.6718397140502930 64 128 99
1.5894122123718262 -4.5152640342712402 4.6438055038452148 64 128 99
1.8727205991744995 -4.3086509704589844 4.7279000282287598 64 128 99
1.9088852405548096 -4.4262528419494629 4.8425350189208984 64 128 99
1.9153490066528320 -4.4158129692077637 4.8198423385620117 64 128 99
1.6204543113708496 -4.5053062438964844 4.5932302474975586 64 128 99
1.4612014293670654 -4.3504953384399414 4.9215054512023926 64 128 99
1.5777341127395630 -4.4898395538330078 4.6657257080078125 64 128 99
1.8209004402160645 -4.3566136360168457 4.2845788002014160 64 128 99
1.3945631980895996 -4.3612570762634277 4.0512971878051758 64 128 99
1.8980088233947754 -4.4247293472290039 4.9005494117736816 64 128 99
1.8241753578186035 -4.4343228340148926 4.6863989830017090 64 128 99
1.7980659008026123 -4.4346938133239746 4.6718635559082031 64 128 99
1.9038716554641724 -4.4432225227355957 4.7764654159545898 64 128 99
1.5205228328704834 -4.4684066772460938 4.6411075592041016 64 128 99
1.8555599451065063 -4.4763612747192383 4.6704645156860352 64 128 99
1.8592056035995483 -4.3050055503845215 4.6751198768615723 64 128 99
1.7308467626571655 -4.6511521339416504 4.6115989685058594 64 128 99
1.8650249242782593 -4.3384985923767090 4.8680887222290039 64 128 99
1.8838846683502197 -4.3482379913330078 4.8583416938781738 64 128 99
1.4963583946228027 -4.2783031463623047 4.7048249244689941 64 128 99
1.6487580537796021 -4.5728201866149902 4.6229372024536133 64 128 99
1.8375822305679321 -4.2544860839843750 4.8297257423400879 64 128 99
1.8673118352890015 -4.4436588287353516 4.7170891761779785 64 128 99
1.8554806709289551 -4.2732100486755371 4.7408490180969238 64 128 99
1.6617206335067749 -4.7138271331787109 3.8706519603729248 64 128 99
1.5340756177902222 -4.5689749717712402 3.6708600521087646 64 128 99
1.8148465156555176 -4.6051979064941406 4.7346577644348145 64 128 99
1.4423056840896606 -4.3727693557739258 4.6776905059814453 64 128 99
1.5842945575714111 -4.5211825370788574 4.6715159416198730 64 128 99
1.8260604143142700 -4.4516782760620117 4.6526145935058594 64 128 99
1.7959221601486206 -4.4417343139648438 4.6805691719055176 64 128 99
1.8520224094390869 -4.4468760490417480 4.6949992179870605 64 128 99
1.8942768573760986 -4.3911452293395996 4.8177056312561035 64 128 99
1.4753290414810181 -4.4662108421325684 4.6857781410217285 64 128 99
1.4365991353988647 -4.4198336601257324 4.7708959579467773 64 128 99
1.5052480697631836 -4.2642908096313477 4.7516355514526367 64 128 99
1.7997421026229858 -4.2017903327941895 4.6739106178283691 64 128 99
1.7857522964477539 -4.5694980621337891 4.3982520103454590 64 128 99
1.7904121875762939 -4.3328051567077637 4.5961251258850098 64 128 99
1.7544389963150024 -4.5949792861938477 4.7563409805297852 64 128 99
1.8612046241760254 -4.2887868881225586 4.8225903511047363 64 128 99
1.6435580253601074 -4.4574489593505859 4.6685166358947754 64 128 99
1.8719295263290405 -4.5117874145507813 4.7115106582641602 64 128 99
1.8881539106369019 -4.4019951820373535 4.7999672889709473 64 128 99
1.8656221628189087 -4.4731860160827637 4.8073625564575195 64 128 99
1.8824375867843628 -4.3802089691162109 4.7445960044860840 64 128 99
1.5374985933303833 -4.5050377845764160 4.6804642677307129 64 128 99
1.6381373405456543 -4.4955415725708008 4.8850164413452148 64 128 99
1.8448084592819214 -4.4876699447631836 4.7250704765319824 64 128 99
1.7946779727935791 -4.6672110557556152 4.4814634323120117 64 128 99
1.6800874471664429 -4.4460363388061523 4.4662046432495117 64 128 99
1.8746147155761719 -4.3193874359130859 4.8211541175842285 64 128 99
1.4398019313812256 -4.4649815559387207 4.7628765106201172 64 128 99
1.5617086887359619 -4.5083136558532715 4.6636953353881836 64 128 99
1.8641467094421387 -4.4894542694091797 4.6560091972351074 64 128 99
1.8432104587554932 -4.4664669036865234 4.6661677360534668 64 128 99
1.7936934232711792 -4.6301431655883789 4.7427062988281250 64 128 99
1.8568226099014282 -4.4629397392272949 4.9841823577880859 64 128 99
1.5736922025680542 -4.4742250442504883 4.6568865776062012 64 128 99
1.8301239013671875 -4.5565958023071289 4.7572622299194336 64 128 99
1.5651946067810059 -4.5170960426330566 4.8338384628295898 64 128 99
1.5735044479370117 -4.4514188766479492 4.3733644485473633 64 128 99
1.8016214370727539 -4.4616866111755371 4.6709351539611816 64 128 99
1.6810340881347656 -4.4977068901062012 4.0984053611755371 64 128 99
1.8544546365737915 -4.4055356979370117 4.6856050491333008 64 128 99
1.4596292972564697 -4.4147267341613770 4.7633104324340820 64 128 99
1.4883136749267578 -4.4909772872924805 3.7990534305572510 64 128 99
1.8615097999572754 -4.2797923088073730 4.7295613288879395 64 128 99
1.6431413888931274 -4.5891809463500977 4.6874451637268066 64 128 99
1.8832062482833862 -4.3569312095642090 4.6949057579040527 64 128 99
1.6626563072204590 -4.5315508842468262 4.4624547958374023 64 128 99
1.4333604574203491 -4.4159107208251953 4.8062047958374023 64 128 99
1.4296841621398926 -4.4375209808349609 4.7969188690185547 64 128 99
1.8493570089340210 -4.3059239387512207 4.6530036926269531 64 128 99
1.5722407102584839 -4.5142040252685547 4.6763629913330078 64 128 99
1.5876281261444092 -4.3502621650695801 4.6429104804992676 64 128 99
1.6363939046859741 -4.2189908027648926 4.8579783439636230 64 128 99
1.4752391576766968 -4.3775939941406250 4.5644707679748535 64 128 99
1.5381006002426147 -4.4659709930419922 4.6632304191589355 64 128 99
1.8784964084625244 -4.4013614654541016 4.6978807449340820 64 128 99
1.7963540554046631 -4.3318829536437988 4.6632370948791504 64 128 99
1.4562077522277832 -4.3899302482604980 4.7050914764404297 64 128 99
1.5687834024429321 -4.5069208145141602 4.6716523170471191 64 128 99
1.5810910463333130 -4.2248291969299316 4.5811781883239746 64 128 99
1.8241065740585327 -4.2841787338256836 4.7901935577392578 64 128 99
1.8020534515380859 -4.2365164756774902 7.9022364616394043 64 128 99
1.5347661972045898 -4.4887733459472656 4.1782422065734863 64 128 99
1.4725389480590820 -4.3067240715026855 4.7794127464294434 64 128 99
1.5422220230102539 -4.6844253540039063 3.7339456081390381 64 128 99
1.7133371829986572 -4.3112092018127441 4.6281704902648926 64 128 99
1.7882461547851563 -4.5429940223693848 4.7826433181762695 64 128 99
1.8390244245529175 -4.5400242805480957 4.7494058609008789 64 128 99
1.8148311376571655 -4.6143412590026855 4.7586631774902344 64 128 99
1.6550087928771973 -4.4575533866882324 4.6026501655578613 64 128 99
1.9039380550384521 -4.4660067558288574 4.7229595184326172 64 128 99
1.4563986063003540 -4.3326616287231445 4.8624649047851563 64 128 99
1.4434241056442261 -4.4007973670959473 4.8178157806396484 64 128 99
1.4414753913879395 -4.4042959213256836 4.7764511108398438 64 128 99
1.8420699834823608 -4.5636181831359863 4.7662606239318848 64 128 99
1.4800581932067871 -4.4767546653747559 4.6294722557067871 64 128 99
1.7822566032409668 -4.5736231803894043 4.6433587074279785 64 128 99
1.4355852603912354 -4.5207247734069824 4.2158985137939453 64 128 99
1.8587464094161987 -4.3217110633850098 4.4784684181213379 64 128 99
1.4562082290649414 -4.3443899154663086 4.4551639556884766 64 128 99
1.4589630365371704 -4.4907183647155762 4.6535763740539551 64 128 99
1.4529631137847900 -4.3947620391845703 4.7241864204406738 64 128 99
1.5524939298629761 -4.3649482727050781 3.5008211135864258 64 128 99
1.4979674816131592 -4.5103812217712402 4.7078967094421387 64 128 99
1.5372190475463867 -4.3739352226257324 3.7526276111602783 64 128 99
1.8828895092010498 -4.4468708038330078 4.7409577369689941 64 128 99
1.6221176385879517 -4.3815698623657227 5.0792541503906250 64 128 99
1.6375163793563843 -4.4693121910095215 4.6694750785827637 64 128 99
1.8507198095321655 -4.6373462677001953 4.8260784149169922 64 128 99
1.4736735820770264 -4.5119171142578125 4.7601075172424316 64 128 99
1.7285821437835693 -4.4525547027587891 4.6849579811096191 64 128 99
1.4792184829711914 -4.3064694404602051 4.8641095161437988 64 128 99
1.4730221033096313 -4.3186821937561035 4.8041262626647949 64 128 99
1.8797724246978760 -4.4860363006591797 4.6945586204528809 64 128 99
1.7542723417282104 -4.2373456954956055 4.6479740142822266 64 128 99
1.4729452133178711 -4.3782515525817871 4.1096825599670410 64 128 99
1.8510372638702393 -4.4854016304016113 4.6855406761169434 64 128 99
1.6119939088821411 -4.3685421943664551 4.8680891990661621 64 128 99
1.5276938676834106 -4.4735369682312012 4.6305346488952637 64 128 99
1.9124755859375000 -4.4346928596496582 4.8247780799865723 64 128 99
1.5974538326263428 -4.3399724960327148 4.6489052772521973 64 128 99
1.8152633905410767 -4.3971681594848633 4.7417325973510742 64 128 99
1.5282496213912964 -4.2423076629638672 4.7880535125732422 64 128 99
1.6497865915298462 -4.6314845085144043 4.2691307067871094 64 128 99
1.8488860130310059 -4.2696361541748047 4.8459997177124023 64 128 99
1.8576186895370483 -4.4969573020935059 4.6963582038879395 64 128 99
1.8027052879333496 -4.4434614181518555 4.6133589744567871 64 128 99
1.7346924543380737 -4.3359570503234863 4.7813892364501953 64 128 99
1.5008648633956909 -4.3464760780334473 3.9478237628936768 64 128 99
1.4791694879531860 -4.5350947380065918 4.6614770889282227 64 128 99
1.8726595640182495 -4.4408473968505859 4.6743130683898926 64 128 99
1.4362680912017822 -4.4319705963134766 4.7681217193603516 64 128 99
1.8333016633987427 -4.6084547042846680 4.7652411460876465 64 128 99
1.6761717796325684 -4.4702205657958984 4.6662616729736328 64 128 99
1.8421109914779663 -4.6389293670654297 4.7875771522521973 64 128 99
1.6967931985855103 -4.4691729545593262 3.9982736110687256 64 128 99
1.4611182212829590 -4.3885359764099121 3.8522431850433350 64 128 99
1.5043473243713379 -4.5458221435546875 4.7141809463500977 64 128 99
1.7270262241363525 -4.4667954444885254 4.6778578758239746 64 128 99
1.4666942358016968 -4.3640131950378418 4.5666265487670898 64 128 99
1.8641484975814819 -4.4210138320922852 4.5088853836059570 64 128 99
1.5481619834899902 -4.3144278526306152 3.5816779136657715 64 128 99
1.4272836446762085 -4.4394187927246094 4.7845277786254883 64 128 99
1.4250684976577759 -4.4054265022277832 4.6998028755187988 64 128 99
1.8521631956100464 -4.5658712387084961 4.7644920349121094 64 128 99
1.5120060443878174 -4.5369586944580078 4.5942220687866211 64 128 99
1.4696215391159058 -4.5323448181152344 4.7254290580749512 64 128 99
1.5895659923553467 -4.4660277366638184 3.6903007030487061 64 128 99
1.8835989236831665 -4.3607950210571289 4.7461118698120117 64 128 99
1.6359887123107910 -4.3725557327270508 4.9733161926269531 64 128 99
1.4704649448394775 -4.4154114723205566 4.7693157196044922 64 128 99
1.6020598411560059 -4.4241271018981934 5.1840057373046875 64 128 99
1.4799295663833618 -4.4272594451904297 4.6102824211120605 64 128 99
1.8351451158523560 -4.5062432289123535 4.6362085342407227 64 128 99
1.6016573905944824 -4.4201655387878418 3.7040271759033203 64 128 99
1.8320374488830566 -4.5467133522033691 4.6668629646301270 64 128 99
1.8402519226074219 -4.3979682922363281 4.6447272300720215 64 128 99
1.6825548410415649 -4.3538246154785156 3.8294172286987305 64 128 99
1.8667955398559570 -4.3471746444702148 4.5932073593139648 64 128 99
1.8830765485763550 -4.3190932273864746 4.9030833244323730 64 128 99
1.8066219091415405 -4.2236590385437012 4.8294687271118164 64 128 99
1.8085550069808960 -4.2084455490112305 4.8423876762390137 64 128 99
1.6227247714996338 -4.2296204566955566 4.7945127487182617 64 128 99
1.6541309356689453 -4.2316169738769531 4.7624492645263672 64 128 99
1.4528350830078125 -4.4047966003417969 4.4597158432006836 64 128 99
1.4664210081100464 -4.5314059257507324 4.7529454231262207 64 128 99
1.8285390138626099 -4.4321408271789551 4.5034475326538086 64 128 99
1.6662495136260986 -4.2246632575988770 4.7393503189086914 64 128 99
1.6051770448684692 -4.2251863479614258 4.7400932312011719 64 128 99
1.5924612283706665 -4.3460702896118164 4.6181454658508301 64 128 99
1.4357341527938843 -4.4267697334289551 4.8069067001342773 64 128 99
1.5643906593322754 -4.4732742309570313 4.6458983421325684 64 128 99
1.5201659202575684 -4.2492794990539551 4.8320522308349609 64 128 99
1.8793344497680664 -4.3325395584106445 4.7275772094726563 64 128 99
1.6849786043167114 -4.3178310394287109 4.6216902732849121 64 128 99
1.4831566810607910 -4.2991538047790527 4.7207007408142090 64 128 99
1.8085591793060303 -4.2016587257385254 4.7422089576721191 64 128 99
1.5897542238235474 -4.4123644828796387 4.4683108329772949 64 128 99
1.4300298690795898 -4.4272842407226563 4.7855653762817383 64 128 99
1.7394926548004150 -4.3934764862060547 4.6601328849792480 64 128 99
1.7842669486999512 -4.3368749618530273 4.6714124679565430 64 128 99
1.7294539213180542 -4.2695140838623047 4.3554649353027344 64 128 99
1.8926932811737061 -4.3544335365295410 4.7074847221374512 64 128 99
1.4417501688003540 -4.3900427818298340 4.8342413902282715 64 128 99
1.4660574197769165 -4.5384798049926758 4.4006276130676270 64 128 99
1.4817527532577515 -4.2917747497558594 4.8224382400512695 64 128 99
1.4746133089065552 -4.4359288215637207 4.6881685256958008 64 128 99
1.5704479217529297 -4.4043984413146973 5.8374328613281250 64 128 99
1.8815315961837769 -4.3500480651855469 4.7702531814575195 64 128 99
1.4702085256576538 -4.5097136497497559 4.7053680419921875 64 128 99
1.4698390960693359 -4.3241963386535645 4.6496367454528809 64 128 99
1.8021154403686523 -4.6146593093872070 4.7145733833312988 64 128 99
1.5475209951400757 -4.2454843521118164 4.1773643493652344 64 128 99
1.4629427194595337 -4.3958129882812500 4.6974930763244629 64 128 99
1.8211375474929810 -4.4649419784545898 4.7424268722534180 64 128 99
1.7051274776458740 -4.2237691879272461 4.7926955223083496 64 128 99
1.7570424079895020 -4.3179297447204590 4.7177705764770508 64 128 99
1.7977324724197388 -4.5658512115478516 4.1276597976684570 64 128 99
1.8378952741622925 -4.6243648529052734 4.7962074279785156 64 128 99
1.7512372732162476 -4.5417103767395020 4.8242049217224121 64 128 99
1.9166291952133179 -4.4463925361633301 4.8166232109069824 64 128 99
1.6132277250289917 -4.2259631156921387 4.7666020393371582 64 128 99
1.4287160634994507 -4.4410533905029297 4.7846946716308594 64 128 99
1.8885635137557983 -4.4344105720520020 4.6452465057373047 64 128 99
1.8595629930496216 -4.6264138221740723 4.8832397460937500 64 128 99
1.8371020555496216 -4.4868817329406738 4.6794767379760742 64 128 99
1.5475856065750122 -4.6471843719482422 3.7704625129699707 64 128 99
1.6430802345275879 -4.2311220169067383 4.7795763015747070 64 128 99
1.7900071144104004 -4.4461817741394043 4.7284569740295410 64 128 99
1.5093784332275391 -4.2651400566101074 4.7239551544189453 64 128 99
1.4704433679580688 -4.5010232925415039 4.7406482696533203 64 128 99
1.6045975685119629 -4.2257032394409180 4.7728419303894043 64 128 99
1.6215480566024780 -4.2272253036499023 4.7442622184753418 64 128 99
1.4477366209030151 -4.3736863136291504 4.7418117523193359 64 128 99
1.8836104869842529 -4.5257401466369629 4.7417788505554199 64 128 99
1.8190636634826660 -4.5922408103942871 4.7647490501403809 64 128 99
1.8678494691848755 -4.5330085754394531 4.7226619720458984 64 128 99
1.8282620906829834 -4.5550398826599121 4.7371134757995605 64 128 99
1.7884706258773804 -4.5043544769287109 4.7019791603088379 64 128 99
1.8800373077392578 -4.5115203857421875 4.8038740158081055 64 128 99
1.4359153509140015 -4.4027042388916016 4.8086156845092773 64 128 99
1.8784776926040649 -4.4496455192565918 4.6686811447143555 64 128 99
1.6701496839523315 -4.3386673927307129 4.8551611900329590 64 128 99
1.5702720880508423 -4.2283921241760254 4.8528442382812500 64 128 99
1.6525057554244995 -4.4892835617065430 3.5447943210601807 64 128 99
1.5512613058090210 -4.4571771621704102 4.6170058250427246 64 128 99
1.8918125629425049 -4.3291625976562500 4.7485733032226563 64 128 99
1.8288980722427368 -4.4184560775756836 4.8150634765625000 64 128 99
1.4421573877334595 -4.4105257987976074 4.6177940368652344 64 128 99
1.8086470365524292 -4.4741549491882324 4.6536550521850586 64 128 99
1.8769704103469849 -4.3950238227844238 4.6620311737060547 64 128 99
1.8032364845275879 -4.4744954109191895 4.6783595085144043 64 128 99
1.9179121255874634 -4.4358096122741699 4.8041987419128418 64 128 99
1.4798284769058228 -4.4744987487792969 4.5616006851196289 64 128 99
1.6997745037078857 -4.3227639198303223 4.9226236343383789 64 128 99
1.4618877172470093 -4.3429083824157715 4.5863327980041504 64 128 99
1.8496093750000000 -4.4591455459594727 4.6822171211242676 64 128 99
1.7349460124969482 -4.2370367050170898 4.5336699485778809 64 128 99
1.8708097934722900 -4.6046438217163086 4.7809576988220215 64 128 99
1.6046315431594849 -4.2280077934265137 4.6439685821533203 64 128 99
1.8834903240203857 -4.3851666450500488 4.7206459045410156 64 128 99
1.5505915880203247 -4.2239327430725098 4.7775840759277344 64 128 99
1.7089611291885376 -4.4249377250671387 4.6267147064208984 64 128 99
1.4378873109817505 -4.4739642143249512 4.7762293815612793 64 128 99
1.4575071334838867 -4.4144430160522461 4.6607551574707031 64 128 99
1.4538084268569946 -4.4391493797302246 4.7190470695495605 64 128 99
1.8552863597869873 -4.2990779876708984 4.7671990394592285 64 128 99
1.7439987659454346 -4.3874945640563965 4.6138510704040527 64 128 99
1.8394100666046143 -4.5979266166687012 4.7845606803894043 64 128 99
1.5392892360687256 -4.2788138389587402 3.6639137268066406 64 128 99
1.6469006538391113 -4.2337112426757813 4.8070883750915527 64 128 99
1.8499088287353516 -4.2729635238647461 4.7525343894958496 64 128 99
1.8558816909790039 -4.4000391960144043 4.4435577392578125 64 128 99
1.5223673582077026 -4.3983063697814941 4.6599268913269043 64 128 99
1.7779808044433594 -4.5289368629455566 4.4808340072631836 64 128 99
1.8564162254333496 -4.4720582962036133 4.6707992553710938 64 128 99
1.8560993671417236 -4.4636945724487305 4.6270222663879395 64 128 99
1.8780965805053711 -4.3262286186218262 4.7635436058044434 64 128 99
1.5170146226882935 -4.2374210357666016 4.7210745811462402 64 128 99
1.8535423278808594 -4.2642683982849121 4.7693781852722168 64 128 99
1.6593223810195923 -4.4482054710388184 4.6493549346923828 64 128 99
1.7850927114486694 -4.1611809730529785 4.7767548561096191 64 128 99
1.8021223545074463 -4.4974231719970703 4.6890950202941895 64 128 99
1.7900078296661377 -4.6218638420104980 4.6603784561157227 64 128 99
1.8694430589675903 -4.3979063034057617 4.4747180938720703 64 128 99
1.5260204076766968 -4.2371544837951660 4.7588124275207520 64 128 99
1.5568717718124390 -4.4928565025329590 4.6495499610900879 64 128 99
1.8545982837677002 -4.3079833984375000 4.9796113967895508 64 128 99
1.4585726261138916 -4.3533897399902344 4.6916594505310059 64 128 99
1.4474880695343018 -4.3679161071777344 4.8220176696777344 64 128 99
1.3955178260803223 -4.4276275634765625 4.1391410827636719 64 128 99
1.4975086450576782 -4.2983055114746094 4.6628012657165527 64 128 99
1.8939741849899292 -4.3159894943237305 4.8443903923034668 64 128 99
1.4591219425201416 -4.3673720359802246 4.8015179634094238 64 128 99
1.8935887813568115 -4.4609379768371582 4.9021906852722168 64 128 99
1.7259770631790161 -4.4451942443847656 4.6761221885681152 64 128 99
1.8059177398681641 -4.5783658027648926 4.8011498451232910 64 128 99
1.6049990653991699 -4.2430076599121094 4.8889026641845703 64 128 99
1.6467785835266113 -4.2228703498840332 4.7249498367309570 64 128 99
1.7228134870529175 -4.4761996269226074 3.4770512580871582 64 128 99
1.7572003602981567 -4.5576844215393066 4.6886029243469238 64 128 99
1.7187751531600952 -4.5535106658935547 4.6831145286560059 64 128 99
1.8620537519454956 -4.4937596321105957 4.6972107887268066 64 128 99
1.4928127527236938 -4.3248853683471680 4.6628537178039551 64 128 99
1.4511785507202148 -4.3999271392822266 4.8545956611633301 64 128 99
1.4790230989456177 -4.3281230926513672 4.8441677093505859 64 128 99
1.8525002002716064 -4.5635514259338379 4.7078762054443359 64 128 99
1.4664689302444458 -4.3408441543579102 4.8158078193664551 64 128 99
1.8107272386550903 -4.3916525840759277 4.7207589149475098 64 128 99
1.8549150228500366 -4.4283161163330078 4.5212144851684570 64 128 99
1.8875510692596436 -4.4337368011474609 4.7716293334960938 64 128 99
1.8534357547760010 -4.4041662216186523 4.6743063926696777 64 128 99
1.8472753763198853 -4.4603648185729980 4.6710581779479980 64 128 99
1.4822865724563599 -4.2970123291015625 4.7354102134704590 64 128 99
1.6507825851440430 -4.4326510429382324 4.6644110679626465 64 128 99
1.8244687318801880 -4.3890495300292969 4.7013144493103027 64 128 99
1.6861813068389893 -4.3167347908020020 4.6277713775634766 64 128 99
1.5029885768890381 -4.4548835754394531 4.6279978752136230 64 128 99
1.4482588768005371 -4.3971409797668457 4.8691477775573730 64 128 99
1.8167628049850464 -4.6081748008728027 4.7460198402404785 64 128 99
1.8771117925643921 -4.4939846992492676 4.7306361198425293 64 128 99
1.6419984102249146 -4.3069190979003906 4.6255812644958496 64 128 99
1.8735646009445190 -4.4427495002746582 4.6887836456298828 64 128 99
1.6472023725509644 -4.4326810836791992 4.6474585533142090 64 128 99
1.8432953357696533 -4.4630231857299805 4.6435670852661133 64 128 99
1.8485002517700195 -4.4200015068054199 4.6788320541381836 64 128 99
1.8114114999771118 -4.4625749588012695 4.6527991294860840 64 128 99
1.8027219772338867 -4.5080046653747559 4.6971402168273926 64 128 99
1.7093286514282227 -4.3122773170471191 4.6078128814697266 64 128 99
1.8531212806701660 -4.4115233421325684 4.3869605064392090 64 128 99
1.8607840538024902 -4.3738212585449219 4.4272751808166504 64 128 99
1.6107369661331177 -4.2268548011779785 4.7683529853820801 64 128 99
1.7398897409439087 -4.4549574851989746 4.6824693679809570 64 128 99
1.8798506259918213 -4.3211717605590820 4.8149266242980957 64 128 99
1.8732231855392456 -4.3616518974304199 4.6967835426330566 64 128 99
1.8851344585418701 -4.5033874511718750 4.6850504875183105 64 128 99
1.5863246917724609 -4.5366005897521973 4.3936934471130371 64 128 99
1.6211037635803223 -4.2297496795654297 4.7860531806945801 64 128 99
1.8097726106643677 -4.2249746322631836 4.7473816871643066 64 128 99
1.4645447731018066 -4.3623070716857910 4.8499956130981445 64 128 99
1.6373348236083984 -4.3047456741333008 4.6133465766906738 64 128 99
1.4669380187988281 -4.3818120956420898 4.7167515754699707 64 128 99
1.5620856285095215 -4.3715291023254395 4.3733468055725098 64 128 99
1.6394162178039551 -4.2337741851806641 4.8106026649475098 64 128 99
1.4926379919052124 -4.2994222640991211 4.8335571289062500 64 128 99
1.8340653181076050 -4.2284388542175293 4.7177476882934570 64 128 99
1.6844929456710815 -4.2994465827941895 4.6131863594055176 64 128 99
1.8017256259918213 -4.1792187690734863 4.7787842750549316 64 128 99
1.7014085054397583 -4.4688062667846680 4.6635718345642090 64 128 99
1.8918926715850830 -4.3966655731201172 4.7432808876037598 64 128 99
1.6171770095825195 -4.5770912170410156 4.7052769660949707 64 128 99
1.6040139198303223 -4.4274210929870605 4.7796239852905273 64 128 99
1.4470484256744385 -4.3035969734191895 4.4509859085083008 64 128 99
1.6729834079742432 -4.1939001083374023 4.5769844055175781 64 128 99
1.8505446910858154 -4.4309167861938477 4.4822897911071777 64 128 99
1.6225711107254028 -4.4900732040405273 4.6496253013610840 64 128 99
1.6415759325027466 -4.3205714225769043 4.6172962188720703 64 128 99
1.4556376934051514 -4.3629336357116699 4.8114633560180664 64 128 99
1.5406103134155273 -4.5104718208312988 4.6012330055236816 64 128 99
1.8047101497650146 -4.5973963737487793 4.6929450035095215 64 128 99
1.8062412738800049 -4.3473448753356934 4.6845865249633789 64 128 99
1.8346416950225830 -4.5621323585510254 4.7377157211303711 64 128 99
1.6216269731521606 -4.2279853820800781 4.7780609130859375 64 128 99
1.6478050947189331 -4.3144087791442871 4.5659804344177246 64 128 99
1.6283365488052368 -4.3797359466552734 4.8989725112915039 64 128 99
1.4385480880737305 -4.4530882835388184 4.8020606040954590 64 128 99
1.7834887504577637 -4.3374481201171875 4.6647782325744629 64 128 99
1.5071753263473511 -4.4607844352722168 4.4934377670288086 64 128 99
1.8852169513702393 -4.4720158576965332 4.7715473175048828 64 128 99
1.7277371883392334 -4.2012462615966797 4.6382942199707031 64 128 99
1.8793643712997437 -4.4329938888549805 4.7132344245910645 64 128 99
1.9057792425155640 -4.3606967926025391 4.7986831665039063 64 128 99
1.4827238321304321 -4.4137978553771973 4.1649661064147949 64 128 99
1.8357028961181641 -4.4571132659912109 4.6737051010131836 64 128 99
1.8400994539260864 -4.5598082542419434 4.6733436584472656 64 128 99
1.7980546951293945 -4.3211283683776855 4.4411578178405762 64 128 99
1.8566728830337524 -4.2934498786926270 4.8393559455871582 64 128 99
1.6967606544494629 -4.3746285438537598 3.8681457042694092 64 128 99
1.5569983720779419 -4.4293622970581055 4.6576123237609863 64 128 99
1.5575298070907593 -4.2771100997924805 3.9089508056640625 64 128 99
1.6421197652816772 -4.5834569931030273 4.6725745201110840 64 128 99
1.8501852750778198 -4.4401125907897949 4.6903462409973145 64 128 99
1.6815160512924194 -4.2814092636108398 4.2696132659912109 64 128 99
1.8949843645095825 -4.3581695556640625 4.6304159164428711 64 128 99
1.6623061895370483 -4.2880988121032715 4.4428310394287109 64 128 99
1.6628915071487427 -4.2063732147216797 4.7204685211181641 64 128 99
1.8019719123840332 -4.4911556243896484 4.5987987518310547 64 128 99
1.6571590900421143 -4.3151121139526367 4.5871386528015137 64 128 99
1.6130094528198242 -4.3714628219604492 3.7908914089202881 64 128 99
1.8662680387496948 -4.4434618949890137 4.6827106475830078 64 128 99
1.8911428451538086 -4.5122117996215820 4.7023587226867676 64 128 99
1.6692719459533691 -4.4802517890930176 4.4738645553588867 64 128 99
1.7159426212310791 -4.5064826011657715 3.5074553489685059 64 128 99
1.7364258766174316 -4.3897376060485840 4.6508040428161621 64 128 99
1.4380772113800049 -4.4009332656860352 4.7656993865966797 64 128 99
1.9009712934494019 -4.4081153869628906 4.7840471267700195 64 128 99
1.7368489503860474 -4.4155230522155762 5.0079498291015625 64 128 99
1.4546626806259155 -4.5540070533752441 4.2414426803588867 64 128 99
1.4662264585494995 -4.4921455383300781 4.8102574348449707 64 128 99
1.4722198247909546 -4.5223183631896973 4.7274360656738281 64 128 99
1.8445359468460083 -4.5581059455871582 4.6856493949890137 64 128 99
1.6029406785964966 -4.3265810012817383 4.5575995445251465 64 128 99
1.4998943805694580 -4.4725346565246582 4.6647291183471680 64 128 99
1.8479443788528442 -4.3892908096313477 4.5849366188049316 64 128 99
1.8526476621627808 -4.2989959716796875 4.8386478424072266 64 128 99
1.7439265251159668 -4.3068256378173828 4.6341409683227539 64 128 99
1.6608420610427856 -4.4175219535827637 4.6176896095275879 64 128 99
1.8965789079666138 -4.4031863212585449 4.7864613533020020 64 128 99
1.4642581939697266 -4.3202314376831055 4.8611640930175781 64 128 99
1.9121443033218384 -4.4535288810729980 4.9490199089050293 64 128 99
1.8738468885421753 -4.3249163627624512 4.6293368339538574 64 128 99
1.6757048368453979 -4.4664373397827148 4.6513519287109375 64 128 99
1.6843187808990479 -4.5838685035705566 4.1681742668151855 64 128 99
1.6681808233261108 -4.4066200256347656 4.5797419548034668 64 128 99
1.6409497261047363 -4.2269945144653320 4.7772874832153320 64 128 99
1.6924847364425659 -4.2200770378112793 4.6518902778625488 64 128 99
1.6736061573028564 -4.3018598556518555 4.6301712989807129 64 128 99
1.8448295593261719 -4.2589163780212402 4.7637715339660645 64 128 99
1.4846888780593872 -4.3139457702636719 4.6529059410095215 64 128 99
1.8157453536987305 -4.4669618606567383 4.6579537391662598 64 128 99
1.8528559207916260 -4.3699741363525391 4.4640522003173828 64 128 99
1.5582015514373779 -4.5649638175964355 4.5067381858825684 64 128 99
1.4743100404739380 -4.4742808341979980 4.6534481048583984 64 128 99
1.5759385824203491 -4.5233798027038574 4.6898827552795410 64 128 99
1.8881494998931885 -4.3880734443664551 4.8703279495239258 64 128 99
1.8818485736846924 -4.3295807838439941 4.7276687622070313 64 128 99
1.8512592315673828 -4.2778553962707520 4.7893815040588379 64 128 99
1.6271103620529175 -4.3146710395812988 4.6126785278320313 64 128 99
1.5942317247390747 -4.4949078559875488 4.6672396659851074 64 128 99
1.4405273199081421 -4.4171485900878906 4.7933802604675293 64 128 99
1.8477691411972046 -4.4785466194152832 4.6645531654357910 64 128 99
1.9112834930419922 -4.4482626914978027 4.9842758178710938 64 128 99
1.7828475236892700 -4.3347549438476563 4.6581439971923828 64 128 99
1.5436577796936035 -4.4184803962707520 3.9885761737823486 64 128 99
1.7197152376174927 -4.4311275482177734 4.6876153945922852 64 128 99
1.3889038562774658 -4.3696155548095703 4.1059937477111816 64 128 99
1.6874060630798340 -4.1957726478576660 4.6582469940185547 64 128 99
1.8576936721801758 -4.3338699340820313 4.5630264282226563 64 128 99
1.8644959926605225 -4.5575342178344727 4.8261032104492188 64 128 99
1.8644795417785645 -4.4582109451293945 4.6903848648071289 64 128 99
1.9017543792724609 -4.3710556030273438 4.8172707557678223 64 128 99
1.7636539936065674 -4.5804362297058105 4.6900086402893066 64 128 99
1.6264027357101440 -4.2346768379211426 4.8712601661682129 64 128 99
1.5367832183837891 -4.2408795356750488 4.8218002319335938 64 128 99
1.6366298198699951 -4.3460974693298340 4.7271876335144043 64 128 99
1.8195101022720337 -4.2487554550170898 4.8142180442810059 64 128 99
1.7750363349914551 -4.3882913589477539 4.8907442092895508 64 128 99
1.5339260101318359 -4.2536554336547852 4.8785371780395508 64 128 99
1.8707087039947510 -4.2857737541198730 4.7496399879455566 64 128 99
1.7147001028060913 -4.4234437942504883 4.6677083969116211 64 128 99
1.7558573484420776 -4.3200654983520508 4.7410902976989746 64 128 99
1.8777705430984497 -4.3358283042907715 4.8411321640014648 64 128 99
1.8122586011886597 -4.2454991340637207 4.6358671188354492 64 128 99
1.6730699539184570 -4.3186707496643066 4.6821546554565430 64 128 99
1.7592439651489258 -4.6046056747436523 4.7741155624389648 64 128 99
1.8646125793457031 -4.3182911872863770 4.7455792427062988 64 128 99
1.6838268041610718 -4.2319483757019043 4.7412557601928711 64 128 99
1.4317202568054199 -4.4099998474121094 4.7861423492431641 64 128 99
1.7548294067382813 -4.3148837089538574 4.5999274253845215 64 128 99
1.6829016208648682 -4.3098316192626953 4.6591486930847168 64 128 99
1.6754270792007446 -4.2860426902770996 4.5569624900817871 64 128 99
1.6946524381637573 -4.5727515220642090 4.7144155502319336 64 128 99
1.6483327150344849 -4.3056783676147461 4.6323609352111816 64 128 99
1.6752177476882935 -4.4589018821716309 4.8046364784240723 64 128 99
1.5020625591278076 -4.2488884925842285 4.5513234138488770 64 128 99
1.8277209997177124 -4.4227051734924316 4.6633944511413574 64 128 99
1.8522727489471436 -4.4951004981994629 4.6917452812194824 64 128 99
1.7287330627441406 -4.1900482177734375 4.4841017723083496 64 128 99
1.8389103412628174 -4.5503482818603516 4.7393269538879395 64 128 99
1.8362275362014771 -4.6156806945800781 4.7571201324462891 64 128 99
1.7930687665939331 -4.4417676925659180 4.6788673400878906 64 128 99
1.7099245786666870 -4.4812555313110352 4.7583899497985840 64 128 99
1.7325105667114258 -4.3488554954528809 4.7914252281188965 64 128 99
1.7005338668823242 -4.5828022956848145 4.6810746192932129 64 128 99
1.8854978084564209 -4.3831629753112793 4.8020615577697754 64 128 99
1.6819379329681396 -4.3237223625183105 4.6507391929626465 64 128 99
1.7850735187530518 -4.3367877006530762 4.6293253898620605 64 128 99
1.7466465234756470 -4.3173489570617676 4.6141276359558105 64 128 99
1.8629968166351318 -4.2990331649780273 4.7901492118835449 64 128 99
1.8675864934921265 -4.3037195205688477 4.6555757522583008 64 128 99
1.7241053581237793 -4.4196500778198242 4.6455593109130859 64 128 99
1.8798474073410034 -4.5594305992126465 4.8990988731384277 64 128 99
1.7954187393188477 -4.4289789199829102 4.6375665664672852 64 128 99
1.8241695165634155 -4.4424595832824707 4.7837514877319336 64 128 99
1.7335709333419800 -4.5582795143127441 4.6978068351745605 64 128 99
1.8149157762527466 -4.2329335212707520 4.8401155471801758 64 128 99
1.7189899682998657 -4.2188563346862793 4.6089601516723633 64 128 99
1.5103347301483154 -4.5366296768188477 4.7226762771606445 64 128 99
1.6988731622695923 -4.2098217010498047 4.7557363510131836 64 128 99
1.5014734268188477 -4.2563638687133789 4.7836122512817383 64 128 99
1.6622524261474609 -4.4193840026855469 4.5705914497375488 64 128 99
1.8765559196472168 -4.4763498306274414 4.7061834335327148 64 128 99
1.8031687736511230 -4.5857129096984863 4.7152581214904785 64 128 99
1.7359248399734497 -4.2904887199401855 4.5186595916748047 64 128 99
1.6695399284362793 -4.4269914627075195 4.7045783996582031 64 128 99
1.5460671186447144 -4.4610648155212402 3.8178281784057617 64 128 99
1.4694106578826904 -4.4488468170166016 4.9209885597229004 64 128 99
1.4422534704208374 -4.5054922103881836 4.6927247047424316 64 128 99
1.6307411193847656 -4.2264480590820313 4.7410507202148438 64 128 99
1.7200765609741211 -4.5019793510437012 3.5451941490173340 64 128 99
1.4794722795486450 -4.2943243980407715 4.7545542716979980 64 128 99
1.4588140249252319 -4.5275626182556152 4.6409239768981934 64 128 99
