//X Y Z R G B
705
1.9840184450149536 -4.1970438957214355 4.7777118682861328 0 255 255
1.3842868804931641 -4.5522227287292480 4.9575486183166504 0 255 255
1.2854871749877930 -4.5626378059387207 4.9574451446533203 0 255 255
1.9906620979309082 -4.4462499618530273 5.0522117614746094 0 255 255
1.2745790481567383 -4.5256628990173340 4.9205927848815918 0 255 255
1.4365575313568115 -4.2002620697021484 4.7583322525024414 0 255 255
1.4530323743820190 -4.1276855468750000 4.6589412689208984 0 255 255
1.9237105846405029 -4.1735486984252930 4.7564587593078613 0 255 255
1.9638200998306274 -4.1950483322143555 4.7726507186889648 0 255 255
1.3889603614807129 -4.3498020172119141 4.8561730384826660 0 255 255
1.9468584060668945 -4.2115740776062012 4.7548112869262695 0 255 255
1.9722092151641846 -4.1087932586669922 4.7418403625488281 0 255 255
1.9304710626602173 -4.1527295112609863 4.7403283119201660 0 255 255
1.3514274358749390 -4.5030646324157715 4.9509925842285156 0 255 255
1.3842643499374390 -4.3326344490051270 4.7555203437805176 0 255 255
1.9088127613067627 -4.1508870124816895 4.5610480308532715 0 255 255
1.4272075891494751 -4.0209918022155762 4.4801063537597656 0 255 255
1.2791087627410889 -4.3556833267211914 4.6666655540466309 0 255 255
2.0529711246490479 -4.1817274093627930 5.1691837310791016 0 255 255
1.3096444606781006 -4.2867112159729004 4.5073947906494141 0 255 255
1.9162181615829468 -3.8857762813568115 4.9324436187744141 0 255 255
1.8538843393325806 -4.0493865013122559 4.7061128616333008 0 255 255
1.5438933372497559 -3.8537697792053223 4.2374157905578613 0 255 255
1.9498190879821777 -4.4188289642333984 4.7070379257202148 0 255 255
1.4026073217391968 -4.4262313842773438 4.8129014968872070 0 255 255
1.9378675222396851 -4.2462120056152344 4.8706521987915039 0 255 255
1.9056454896926880 -3.8501076698303223 4.7615766525268555 0 255 255
1.3365399837493896 -4.3066406250000000 4.8757519721984863 0 255 255
1.9116796255111694 -3.9874408245086670 4.4986076354980469 0 255 255
1.8595596551895142 -3.9099335670471191 4.3508753776550293 0 255 255
1.3885058164596558 -4.2738323211669922 4.7879443168640137 0 255 255
1.8514364957809448 -4.1032400131225586 4.7876715660095215 0 255 255
1.8504092693328857 -4.1658568382263184 4.7276024818420410 0 255 255
1.3549132347106934 -4.6340594291687012 5.0648231506347656 0 255 255
1.8589813709259033 -4.1293864250183105 4.7360024452209473 0 255 255
1.3132288455963135 -4.2608990669250488 4.8086571693420410 0 255 255
1.9181569814682007 -4.1018528938293457 4.7325596809387207 0 255 255
1.2728638648986816 -4.1421351432800293 4.7389235496520996 0 255 255
1.2909218072891235 -4.5296969413757324 4.9141049385070801 0 255 255
1.9540653228759766 -4.4791564941406250 4.7564382553100586 0 255 255
1.3727993965148926 -4.3614230155944824 4.8193116188049316 0 255 255
1.3581032752990723 -4.6199145317077637 5.0050487518310547 0 255 255
1.4192805290222168 -4.1144995689392090 4.8406143188476563 0 255 255
1.9703452587127686 -4.1833176612854004 4.7268924713134766 0 255 255
1.8865016698837280 -4.1901078224182129 4.7522740364074707 0 255 255
1.9018760919570923 -4.1857614517211914 4.7595887184143066 0 255 255
1.9119440317153931 -4.1689739227294922 4.7002873420715332 0 255 255
1.9739789962768555 -4.1389541625976563 4.7797684669494629 0 255 255
1.3819334506988525 -4.4601340293884277 4.9176030158996582 0 255 255
1.9698709249496460 -4.2053461074829102 4.7936267852783203 0 255 255
1.8358902931213379 -4.1223692893981934 4.7777032852172852 0 255 255
1.5224751234054565 -4.2329177856445313 4.8866209983825684 0 255 255
1.2514810562133789 -4.3355855941772461 4.8470673561096191 0 255 255
1.4044804573059082 -4.3286848068237305 4.8395533561706543 0 255 255
1.9301576614379883 -4.2585377693176270 4.8071708679199219 0 255 255
1.4552608728408813 -3.7698071002960205 4.1762213706970215 0 255 255
1.9998019933700562 -4.3391709327697754 4.8877415657043457 0 255 255
1.8482201099395752 -3.9906980991363525 4.2798376083374023 0 255 255
1.3136999607086182 -4.6350831985473633 4.9586873054504395 0 255 255
1.4577075242996216 -3.9688351154327393 4.5862336158752441 0 255 255
1.7434986829757690 -3.9244787693023682 4.9260344505310059 0 255 255
1.4231338500976563 -4.1661963462829590 4.7287340164184570 0 255 255
1.3984957933425903 -4.4023661613464355 4.8247704505920410 0 255 255
1.8626841306686401 -3.9607555866241455 4.8592128753662109 0 255 255
1.3939130306243896 -4.6836471557617188 5.0574321746826172 0 255 255
1.7898974418640137 -3.9863936901092529 5.0020656585693359 0 255 255
1.9089173078536987 -4.0859270095825195 4.7054467201232910 0 255 255
1.8726952075958252 -4.1894898414611816 4.7673845291137695 0 255 255
1.3767559528350830 -4.5487484931945801 4.9320850372314453 0 255 255
1.7927557229995728 -3.8883962631225586 5.0053496360778809 0 255 255
1.2639285326004028 -4.1252555847167969 4.7834458351135254 0 255 255
1.2734673023223877 -4.0876336097717285 4.7455940246582031 0 255 255
1.3818918466567993 -4.6086225509643555 5.0184826850891113 0 255 255
1.3428528308868408 -4.2787809371948242 4.7967047691345215 0 255 255
1.3623498678207397 -4.3761773109436035 4.8660688400268555 0 255 255
1.2957772016525269 -4.3440980911254883 4.9009733200073242 0 255 255
1.3244469165802002 -4.2192459106445313 4.7596087455749512 0 255 255
1.3331415653228760 -4.3285408020019531 4.7780342102050781 0 255 255
1.9684901237487793 -4.1036148071289063 4.7425112724304199 0 255 255
1.4136037826538086 -4.1122550964355469 4.7050614356994629 0 255 255
1.3702206611633301 -4.1460237503051758 4.7289505004882813 0 255 255
1.5093829631805420 -4.1242842674255371 4.6938762664794922 0 255 255
1.7579154968261719 -3.9239921569824219 4.9349036216735840 0 255 255
1.7306848764419556 -3.9538228511810303 4.8358945846557617 0 255 255
1.4361641407012939 -4.6064896583557129 4.8875622749328613 0 255 255
1.3346229791641235 -4.6304922103881836 5.0280952453613281 0 255 255
1.3596212863922119 -4.6299324035644531 5.0166058540344238 0 255 255
1.7007006406784058 -3.9309241771697998 4.9506735801696777 0 255 255
1.3188611268997192 -4.1684222221374512 4.7552728652954102 0 255 255
1.8733887672424316 -4.0169677734375000 4.7310538291931152 0 255 255
1.9522449970245361 -4.2624983787536621 4.8174281120300293 0 255 255
1.3831943273544312 -4.2823619842529297 4.8296623229980469 0 255 255
1.8656533956527710 -4.0761737823486328 4.6491208076477051 0 255 255
1.9153538942337036 -4.1646370887756348 4.7383155822753906 0 255 255
1.9788577556610107 -4.1157975196838379 4.8047394752502441 0 255 255
1.9582325220108032 -4.0688614845275879 4.7357368469238281 0 255 255
1.9751322269439697 -4.2414436340332031 4.8260231018066406 0 255 255
1.9303156137466431 -3.8834581375122070 4.9678025245666504 0 255 255
1.2191883325576782 -4.0943636894226074 4.7714490890502930 0 255 255
1.9201732873916626 -4.2889189720153809 4.7999505996704102 0 255 255
1.9462395906448364 -3.9785909652709961 4.4091253280639648 0 255 255
1.8729112148284912 -3.8677992820739746 4.7065825462341309 0 255 255
1.3739603757858276 -4.4981284141540527 4.9555959701538086 0 255 255
1.8442105054855347 -4.0857496261596680 4.6566581726074219 0 255 255
1.9521172046661377 -3.9215133190155029 4.9599909782409668 0 255 255
1.9283015727996826 -3.9102635383605957 4.9452838897705078 0 255 255
1.9439004659652710 -3.9631302356719971 4.5106201171875000 0 255 255
1.4473161697387695 -4.1190123558044434 4.7496213912963867 0 255 255
1.3552583456039429 -4.1698675155639648 4.6383938789367676 0 255 255
1.9502750635147095 -4.0946941375732422 4.7186121940612793 0 255 255
1.9153981208801270 -3.8959970474243164 4.9353418350219727 0 255 255
1.4389787912368774 -3.9962310791015625 4.5981059074401855 0 255 255
1.2745285034179688 -4.3688387870788574 4.6245594024658203 0 255 255
1.3198525905609131 -4.1311998367309570 4.4655690193176270 0 255 255
1.8571617603302002 -3.8550674915313721 4.4817371368408203 0 255 255
1.8862625360488892 -4.0179581642150879 4.9423117637634277 0 255 255
1.6072152853012085 -4.0385136604309082 4.7759289741516113 0 255 255
1.8779073953628540 -3.9501695632934570 4.4804110527038574 0 255 255
1.2213829755783081 -4.1186261177062988 4.7826328277587891 0 255 255
1.9344797134399414 -4.1823067665100098 4.3538079261779785 0 255 255
1.2513465881347656 -4.2117738723754883 4.9539184570312500 0 255 255
1.3834396600723267 -4.4498381614685059 4.8944444656372070 0 255 255
1.3772097826004028 -4.4340448379516602 4.7393093109130859 0 255 255
2.0265145301818848 -4.4044146537780762 4.9931755065917969 0 255 255
1.2915883064270020 -4.5699996948242188 4.8412284851074219 0 255 255
1.3932864665985107 -4.4653878211975098 4.6402468681335449 0 255 255
1.2916032075881958 -4.1084961891174316 4.3963880538940430 0 255 255
1.3475779294967651 -4.2671222686767578 4.7926473617553711 0 255 255
1.8513940572738647 -3.9093260765075684 4.9025063514709473 0 255 255
1.2470853328704834 -4.2320799827575684 4.8097867965698242 0 255 255
2.0153825283050537 -4.4970755577087402 5.0600609779357910 0 255 255
1.4596961736679077 -3.7811117172241211 4.1750717163085938 0 255 255
1.8599617481231689 -3.9586412906646729 4.3671216964721680 0 255 255
1.9729599952697754 -4.4778699874877930 4.6454191207885742 0 255 255
1.3782459497451782 -4.1742677688598633 4.7097129821777344 0 255 255
1.9668000936508179 -4.0746679306030273 4.6103062629699707 0 255 255
1.8722807168960571 -3.9892067909240723 4.5116438865661621 0 255 255
1.3337379693984985 -4.6341814994812012 5.0065279006958008 0 255 255
1.9707357883453369 -4.5258703231811523 4.8026018142700195 0 255 255
1.4047734737396240 -4.5803236961364746 5.0233221054077148 0 255 255
1.9660882949829102 -4.3566322326660156 4.8931193351745605 0 255 255
1.4039955139160156 -4.3495764732360840 4.8732919692993164 0 255 255
1.2716133594512939 -4.4100680351257324 4.7084050178527832 0 255 255
1.2752833366394043 -4.7673149108886719 5.2107858657836914 0 255 255
1.4142774343490601 -4.7227258682250977 5.1355352401733398 0 255 255
1.4063645601272583 -3.7633543014526367 4.2148833274841309 0 255 255
1.9155039787292480 -3.8979585170745850 4.9665622711181641 0 255 255
1.9304668903350830 -3.8963351249694824 5.0553689002990723 0 255 255
1.2265511751174927 -4.1392683982849121 4.7589230537414551 0 255 255
1.4343537092208862 -4.4860887527465820 4.8795766830444336 0 255 255
1.3407635688781738 -4.6026959419250488 5.0070714950561523 0 255 255
1.9418866634368896 -4.1034998893737793 4.4693551063537598 0 255 255
1.2616660594940186 -4.5124359130859375 4.8992724418640137 0 255 255
1.9979606866836548 -4.4349722862243652 4.9891076087951660 0 255 255
1.9696534872055054 -4.6126308441162109 5.0106506347656250 0 255 255
1.3910008668899536 -4.5877413749694824 4.8447499275207520 0 255 255
1.9175717830657959 -4.1791548728942871 4.5020856857299805 0 255 255
1.2947944402694702 -4.3564248085021973 4.8970284461975098 0 255 255
1.8587330579757690 -3.8864212036132813 4.8414607048034668 0 255 255
1.8753502368927002 -4.0075149536132813 4.2748689651489258 0 255 255
1.9304304122924805 -4.0062561035156250 4.3171086311340332 0 255 255
1.9296404123306274 -4.0652761459350586 4.3389134407043457 0 255 255
1.3680759668350220 -4.4442629814147949 4.9350838661193848 0 255 255
1.2657258510589600 -4.1781568527221680 4.7603702545166016 0 255 255
1.3086955547332764 -4.2441596984863281 4.4649834632873535 0 255 255
1.3467408418655396 -3.9800083637237549 4.4446892738342285 0 255 255
1.3017412424087524 -4.0864219665527344 4.4636940956115723 0 255 255
1.3409851789474487 -3.9515836238861084 4.4257836341857910 0 255 255
1.9560751914978027 -4.1454091072082520 4.5734372138977051 0 255 255
1.8711323738098145 -4.0963912010192871 4.2304687500000000 0 255 255
2.0106804370880127 -4.4318499565124512 4.9260110855102539 0 255 255
1.9500942230224609 -4.2314176559448242 4.5853285789489746 0 255 255
1.4161700010299683 -4.4070663452148438 4.7549438476562500 0 255 255
1.9424670934677124 -4.1351790428161621 4.4931988716125488 0 255 255
1.2958554029464722 -4.5360951423645020 4.9279088973999023 0 255 255
1.4216375350952148 -4.3451333045959473 4.8467125892639160 0 255 255
1.3421956300735474 -4.2464685440063477 4.7886161804199219 0 255 255
1.8707268238067627 -3.9704551696777344 4.3130211830139160 0 255 255
1.3440312147140503 -4.2114963531494141 4.7748384475708008 0 255 255
1.2217143774032593 -4.1013998985290527 4.7741041183471680 0 255 255
1.8902322053909302 -4.2891006469726563 4.4594316482543945 0 255 255
1.3621729612350464 -4.2910561561584473 4.9042282104492188 0 255 255
1.8682070970535278 -3.9197418689727783 4.7633600234985352 0 255 255
1.3116101026535034 -4.0613555908203125 4.4008054733276367 0 255 255
1.3612821102142334 -4.2365002632141113 4.7884998321533203 0 255 255
1.2139028310775757 -4.2824039459228516 4.7306613922119141 0 255 255
1.9152761697769165 -4.1673660278320313 4.6478309631347656 0 255 255
1.3937047719955444 -4.1005921363830566 4.7115015983581543 0 255 255
1.3250612020492554 -4.4497003555297852 4.9436759948730469 0 255 255
1.2672162055969238 -4.4065432548522949 4.9809937477111816 0 255 255
1.9160552024841309 -4.1740641593933105 4.8601546287536621 0 255 255
1.4058080911636353 -4.2520546913146973 4.7846717834472656 0 255 255
1.9650493860244751 -4.1293601989746094 4.7291731834411621 0 255 255
1.3826930522918701 -4.1639413833618164 4.7409629821777344 0 255 255
1.4143084287643433 -4.1393804550170898 4.7103619575500488 0 255 255
1.3142433166503906 -4.5602893829345703 4.9419417381286621 0 255 255
1.2507628202438354 -4.1399054527282715 4.5423650741577148 0 255 255
1.8899360895156860 -4.0030002593994141 4.2121458053588867 0 255 255
1.4646108150482178 -4.1374273300170898 4.7014675140380859 0 255 255
1.3946597576141357 -4.1679024696350098 4.6994905471801758 0 255 255
1.3943371772766113 -4.1367092132568359 4.5738048553466797 0 255 255
1.6460019350051880 -3.9350395202636719 4.9557375907897949 0 255 255
1.9676350355148315 -4.1353120803833008 4.7698974609375000 0 255 255
1.3702683448791504 -4.2300171852111816 4.6673932075500488 0 255 255
1.3709628582000732 -4.2450342178344727 4.5710902214050293 0 255 255
1.9163082838058472 -4.1813869476318359 4.7666268348693848 0 255 255
1.3595517873764038 -4.4066085815429688 4.9015522003173828 0 255 255
1.4531195163726807 -4.1451506614685059 4.7139492034912109 0 255 255
2.0143089294433594 -4.5802025794982910 5.0802636146545410 0 255 255
2.0138430595397949 -4.3090262413024902 5.0000400543212891 0 255 255
1.3482249975204468 -4.0788226127624512 4.5526814460754395 0 255 255
1.3270138502120972 -4.0704298019409180 4.4600682258605957 0 255 255
1.4689210653305054 -3.7316589355468750 4.2517023086547852 0 255 255
1.2966805696487427 -4.1459522247314453 4.4222579002380371 0 255 255
1.2593400478363037 -4.1349449157714844 4.4874339103698730 0 255 255
1.8848757743835449 -4.0409955978393555 4.5382685661315918 0 255 255
1.2596050500869751 -4.1670584678649902 4.4480400085449219 0 255 255
1.9667251110076904 -4.4062976837158203 4.6314754486083984 0 255 255
1.7678128480911255 -3.9875478744506836 4.4597187042236328 0 255 255
1.9726035594940186 -4.2819380760192871 4.8561992645263672 0 255 255
1.4589211940765381 -4.6900982856750488 5.1018342971801758 0 255 255
1.9076108932495117 -4.2425918579101563 4.4288172721862793 0 255 255
1.4347246885299683 -3.7698161602020264 4.2027554512023926 0 255 255
1.3442811965942383 -4.4850759506225586 4.7244539260864258 0 255 255
1.3385511636734009 -4.3914818763732910 4.8906693458557129 0 255 255
1.6343021392822266 -4.0075492858886719 4.8517947196960449 0 255 255
1.2899055480957031 -4.1799049377441406 4.4776473045349121 0 255 255
1.2493015527725220 -4.2712616920471191 4.5683369636535645 0 255 255
1.8812466859817505 -3.9931309223175049 4.3682804107666016 0 255 255
2.1271171569824219 -5.9716010093688965 8.1060161590576172 0 255 255
1.9364763498306274 -3.9745559692382813 4.4313097000122070 0 255 255
2.0127477645874023 -4.1017675399780273 4.7893166542053223 0 255 255
1.2379301786422729 -4.2302002906799316 4.6128811836242676 0 255 255
2.0305950641632080 -4.3103699684143066 4.9245262145996094 0 255 255
1.3813573122024536 -4.3541355133056641 4.8023705482482910 0 255 255
1.2914958000183105 -4.1359410285949707 4.5117826461791992 0 255 255
1.9184615612030029 -4.3755383491516113 4.7652177810668945 0 255 255
1.9158730506896973 -4.0101537704467773 4.2792482376098633 0 255 255
1.9014499187469482 -3.9839096069335938 4.5070481300354004 0 255 255
1.9378290176391602 -4.3841094970703125 4.6775684356689453 0 255 255
1.3401185274124146 -4.2472128868103027 4.8570685386657715 0 255 255
1.8905695676803589 -3.9226970672607422 4.8804550170898438 0 255 255
1.3479259014129639 -4.1687097549438477 4.7542386054992676 0 255 255
1.9013867378234863 -3.9518675804138184 4.8588199615478516 0 255 255
2.0037856101989746 -3.9552547931671143 4.5988163948059082 0 255 255
2.0262303352355957 -4.6582112312316895 5.0944924354553223 0 255 255
1.3961719274520874 -4.4236960411071777 4.8614401817321777 0 255 255
1.2893736362457275 -4.0358576774597168 4.7520494461059570 0 255 255
1.9440038204193115 -4.1214199066162109 4.5400943756103516 0 255 255
1.9880496263504028 -4.4397249221801758 4.9487867355346680 0 255 255
1.2423386573791504 -4.0956711769104004 4.5609135627746582 0 255 255
1.9428693056106567 -4.3385014533996582 4.6983485221862793 0 255 255
1.9280859231948853 -4.4006090164184570 4.7370357513427734 0 255 255
1.2621552944183350 -4.0919694900512695 4.8090019226074219 0 255 255
2.0302097797393799 -4.4705829620361328 5.0395789146423340 0 255 255
1.2743992805480957 -4.1602811813354492 4.4979257583618164 0 255 255
1.3410758972167969 -4.1822381019592285 4.7117371559143066 0 255 255
1.8466254472732544 -4.1534442901611328 4.7197899818420410 0 255 255
1.2534787654876709 -4.2700238227844238 4.8158411979675293 0 255 255
2.1020455360412598 -5.0150709152221680 5.6974139213562012 0 255 255
1.4063792228698730 -4.3154468536376953 4.8788642883300781 0 255 255
1.3805625438690186 -4.3914971351623535 4.8544807434082031 0 255 255
1.3391141891479492 -4.2286939620971680 4.7855110168457031 0 255 255
1.8991413116455078 -3.9863808155059814 4.3577423095703125 0 255 255
2.0489201545715332 -4.5211272239685059 5.1587657928466797 0 255 255
1.5566641092300415 -5.5650048255920410 6.7468400001525879 0 255 255
1.3226540088653564 -4.1585369110107422 4.4459614753723145 0 255 255
1.2012201547622681 -4.1506261825561523 4.8556022644042969 0 255 255
1.2680374383926392 -4.4982204437255859 4.9285440444946289 0 255 255
1.2402260303497314 -4.1906642913818359 4.7008323669433594 0 255 255
1.9992928504943848 -4.1527128219604492 4.8264088630676270 0 255 255
1.2965784072875977 -4.1093273162841797 4.7409815788269043 0 255 255
1.8070634603500366 -4.0240254402160645 4.7026510238647461 0 255 255
1.4059673547744751 -3.7644898891448975 4.2361903190612793 0 255 255
2.0799837112426758 -4.8547081947326660 5.7550144195556641 0 255 255
2.0798342227935791 -4.2961339950561523 5.4821481704711914 0 255 255
2.0953855514526367 -4.7705483436584473 5.3354177474975586 0 255 255
1.2202693223953247 -4.2653479576110840 4.8196091651916504 0 255 255
1.2671627998352051 -4.0703067779541016 4.5943522453308105 0 255 255
1.9417444467544556 -4.3659658432006836 4.7173910140991211 0 255 255
2.0153951644897461 -4.0087404251098633 4.7119159698486328 0 255 255
1.3921567201614380 -4.7098770141601563 5.0974912643432617 0 255 255
2.0314133167266846 -3.9015645980834961 4.8834862709045410 0 255 255
1.7807838916778564 -3.9997289180755615 4.5024681091308594 0 255 255
1.2373296022415161 -4.2152924537658691 4.7673826217651367 0 255 255
1.9366840124130249 -3.9443781375885010 4.6573047637939453 0 255 255
1.9419173002243042 -4.4582862854003906 4.7630877494812012 0 255 255
1.3280650377273560 -4.7831592559814453 5.4766759872436523 0 255 255
1.2469978332519531 -4.3787493705749512 4.7150654792785645 0 255 255
1.9898753166198730 -4.0804891586303711 4.7319207191467285 0 255 255
1.8963949680328369 -4.0232563018798828 4.4346976280212402 0 255 255
1.8296753168106079 -4.0324816703796387 4.7164855003356934 0 255 255
1.9283162355422974 -4.4102420806884766 4.9099140167236328 0 255 255
2.0453629493713379 -4.2844452857971191 5.0393013954162598 0 255 255
1.4588246345520020 -4.0084714889526367 4.5474143028259277 0 255 255
1.6667305231094360 -4.0806593894958496 4.8002972602844238 0 255 255
1.7824611663818359 -4.0656008720397949 4.7635784149169922 0 255 255
1.2190127372741699 -4.1029458045959473 4.7819094657897949 0 255 255
1.4606478214263916 -4.7834343910217285 5.2799701690673828 0 255 255
1.9563312530517578 -4.5484414100646973 4.9412531852722168 0 255 255
2.0047168731689453 -4.6879477500915527 5.2002191543579102 0 255 255
1.9873390197753906 -3.9847173690795898 4.8143262863159180 0 255 255
1.9319672584533691 -3.9250826835632324 4.9424009323120117 0 255 255
1.3473769426345825 -4.7269649505615234 5.2200436592102051 0 255 255
1.6234961748123169 -3.9735214710235596 4.6903138160705566 0 255 255
2.0080380439758301 -3.9869587421417236 4.8254675865173340 0 255 255
1.7595484256744385 -3.8950331211090088 5.0128860473632813 0 255 255
1.3830726146697998 -4.8125395774841309 5.3490738868713379 0 255 255
1.9515761137008667 -4.5069966316223145 4.9171175956726074 0 255 255
1.3327932357788086 -4.3990287780761719 4.9044218063354492 0 255 255
1.2184232473373413 -4.1856136322021484 4.7758436203002930 0 255 255
1.7416155338287354 -4.0209255218505859 4.5448861122131348 0 255 255
1.9105358123779297 -3.9897282123565674 4.8312458992004395 0 255 255
2.0518400669097900 -4.4468951225280762 5.5625457763671875 0 255 255
1.2832804918289185 -4.2042636871337891 4.7730479240417480 0 255 255
1.2533515691757202 -4.2623338699340820 4.8235721588134766 0 255 255
2.0506114959716797 -4.7804131507873535 5.4124455451965332 0 255 255
1.8572504520416260 -4.0545616149902344 4.6242175102233887 0 255 255
1.6729265451431274 -3.9882953166961670 5.1390743255615234 0 255 255
1.6676295995712280 -3.9826328754425049 4.8608508110046387 0 255 255
1.7201228141784668 -3.8186964988708496 4.2144584655761719 0 255 255
1.9289821386337280 -4.0344996452331543 4.7548217773437500 0 255 255
1.2826373577117920 -4.8739647865295410 5.5040559768676758 0 255 255
1.8380939960479736 -3.9074110984802246 4.9690084457397461 0 255 255
1.8400216102600098 -3.8813681602478027 4.5855550765991211 0 255 255
2.0104017257690430 -4.6533179283142090 5.1618423461914063 0 255 255
1.7900248765945435 -4.1036109924316406 4.7206540107727051 0 255 255
1.2346518039703369 -4.2671551704406738 4.6152420043945313 0 255 255
1.9815272092819214 -3.9293198585510254 4.7107930183410645 0 255 255
1.4179375171661377 -4.0193376541137695 4.4714579582214355 0 255 255
1.8867565393447876 -4.0317559242248535 4.7881317138671875 0 255 255
1.9794611930847168 -4.0526895523071289 4.7456307411193848 0 255 255
2.0124092102050781 -4.2394609451293945 4.9047398567199707 0 255 255
2.0427925586700439 -4.9244265556335449 5.6444778442382813 0 255 255
1.7483588457107544 -3.9385297298431396 4.9332852363586426 0 255 255
1.6969269514083862 -3.9744043350219727 4.8787236213684082 0 255 255
1.8325583934783936 -3.9456250667572021 5.0187044143676758 0 255 255
2.0416970252990723 -4.3916082382202148 5.1544122695922852 0 255 255
1.4593802690505981 -4.6379547119140625 4.9890332221984863 0 255 255
1.8343172073364258 -3.9522633552551270 4.2392101287841797 0 255 255
1.8745973110198975 -4.2786102294921875 4.4012236595153809 0 255 255
1.9078537225723267 -3.9300804138183594 4.5958547592163086 0 255 255
1.2933175563812256 -4.0303220748901367 4.6414194107055664 0 255 255
2.0204977989196777 -4.5732245445251465 5.0341520309448242 0 255 255
1.2464616298675537 -4.1480307579040527 4.5575976371765137 0 255 255
1.3978097438812256 -4.0063743591308594 4.5412797927856445 0 255 255
1.8525093793869019 -3.9586443901062012 4.3830823898315430 0 255 255
1.8184207677841187 -4.0862436294555664 4.6151075363159180 0 255 255
1.3772122859954834 -4.0756640434265137 4.5490202903747559 0 255 255
1.7770110368728638 -3.9386343955993652 4.8889765739440918 0 255 255
1.4504042863845825 -4.0292344093322754 4.7498521804809570 0 255 255
1.9779431819915771 -4.3845391273498535 4.8872461318969727 0 255 255
1.8116894960403442 -4.0072550773620605 4.6961393356323242 0 255 255
1.7632188796997070 -3.9609231948852539 4.9084653854370117 0 255 255
2.0121850967407227 -4.6286582946777344 5.2151975631713867 0 255 255
2.0692741870880127 -4.6655621528625488 5.3056173324584961 0 255 255
1.9471002817153931 -4.1058750152587891 4.5534596443176270 0 255 255
1.2115166187286377 -4.2285428047180176 4.7016801834106445 0 255 255
1.8201270103454590 -4.0609602928161621 4.7542338371276855 0 255 255
1.4366645812988281 -4.6311430931091309 4.9320225715637207 0 255 255
1.2311199903488159 -4.1796069145202637 4.8206782341003418 0 255 255
1.6161233186721802 -3.9902877807617188 4.8724517822265625 0 255 255
1.4115747213363647 -4.7443661689758301 5.2419409751892090 0 255 255
1.9875410795211792 -4.0830445289611816 4.8051104545593262 0 255 255
1.2352236509323120 -4.3199844360351563 4.8392300605773926 0 255 255
1.3700351715087891 -3.9798645973205566 4.8263487815856934 0 255 255
1.9430062770843506 -4.1977486610412598 4.5101184844970703 0 255 255
1.8823052644729614 -4.1584434509277344 4.5413432121276855 0 255 255
2.0547349452972412 -4.3831129074096680 5.0692396163940430 0 255 255
1.3159089088439941 -4.7077441215515137 5.1514854431152344 0 255 255
1.2528555393218994 -4.1974062919616699 4.8093256950378418 0 255 255
1.9203627109527588 -3.9511549472808838 4.8924875259399414 0 255 255
1.9451581239700317 -3.9347088336944580 4.9654607772827148 0 255 255
1.3793215751647949 -4.6451826095581055 5.0148692131042480 0 255 255
2.0188696384429932 -3.9726696014404297 4.8594698905944824 0 255 255
1.9760731458663940 -4.5343470573425293 4.9752388000488281 0 255 255
1.7811331748962402 -4.0225205421447754 5.0110969543457031 0 255 255
1.6243927478790283 -3.9146511554718018 4.9372248649597168 0 255 255
1.4307913780212402 -3.9793479442596436 4.4641370773315430 0 255 255
1.4826465845108032 -4.0323972702026367 4.5225992202758789 0 255 255
2.0252456665039063 -4.2955312728881836 4.9794316291809082 0 255 255
1.2801438570022583 -4.7376294136047363 5.2382779121398926 0 255 255
1.7755756378173828 -4.0580716133117676 4.6411490440368652 0 255 255
2.0210461616516113 -4.1557435989379883 4.8537940979003906 0 255 255
1.3953578472137451 -4.1612992286682129 4.6913175582885742 0 255 255
2.0636024475097656 -4.4801759719848633 5.1663188934326172 0 255 255
1.9967155456542969 -3.9390316009521484 4.7914609909057617 0 255 255
1.9828703403472900 -4.3988313674926758 4.9203271865844727 0 255 255
1.9156700372695923 -3.8797309398651123 4.9836440086364746 0 255 255
1.9237623214721680 -3.9008665084838867 4.9540286064147949 0 255 255
1.9953554868698120 -4.4345822334289551 4.9677114486694336 0 255 255
1.8150142431259155 -3.9030928611755371 4.3878679275512695 0 255 255
1.4045320749282837 -3.9991662502288818 4.8811030387878418 0 255 255
1.2749618291854858 -4.0115900039672852 4.7860293388366699 0 255 255
1.7400822639465332 -3.9276576042175293 4.7833619117736816 0 255 255
1.9747689962387085 -4.3427534103393555 4.9277987480163574 0 255 255
1.7788199186325073 -3.9059655666351318 4.9789309501647949 0 255 255
1.8214391469955444 -4.0883998870849609 4.7088460922241211 0 255 255
1.1871954202651978 -4.2718195915222168 4.8788499832153320 0 255 255
2.0023062229156494 -4.6189675331115723 4.9227552413940430 0 255 255
1.3260972499847412 -4.6936688423156738 5.1294326782226563 0 255 255
1.9259968996047974 -3.8414421081542969 4.9929714202880859 0 255 255
1.8019323348999023 -3.9575159549713135 4.9011163711547852 0 255 255
1.8369878530502319 -4.0229153633117676 4.4907379150390625 0 255 255
2.0102376937866211 -4.2691092491149902 4.8651242256164551 0 255 255
1.4276585578918457 -4.0271930694580078 4.8778162002563477 0 255 255
2.0746128559112549 -4.9316420555114746 5.8744449615478516 0 255 255
1.5015072822570801 -4.0316119194030762 4.8242864608764648 0 255 255
1.9896218776702881 -4.0338668823242188 4.7703142166137695 0 255 255
1.9953653812408447 -4.2781400680541992 4.8818378448486328 0 255 255
1.4803177118301392 -3.9927330017089844 4.8885264396667480 0 255 255
1.9868232011795044 -4.3196215629577637 4.7483987808227539 0 255 255
1.2455608844757080 -4.2215018272399902 4.6779661178588867 0 255 255
1.5199682712554932 -4.0000796318054199 4.7709026336669922 0 255 255
1.9837346076965332 -3.9061808586120605 4.8181376457214355 0 255 255
2.0260078907012939 -4.1055912971496582 4.8573226928710938 0 255 255
1.2939063310623169 -4.5828661918640137 4.9171013832092285 0 255 255
2.0113923549652100 -4.0437788963317871 5.3118577003479004 0 255 255
1.3552232980728149 -4.7330579757690430 5.2342095375061035 0 255 255
1.3612787723541260 -4.4227313995361328 4.9157471656799316 0 255 255
1.2455656528472900 -4.0412945747375488 4.8291687965393066 0 255 255
1.9927165508270264 -3.8945641517639160 4.9280991554260254 0 255 255
1.2790859937667847 -4.7150964736938477 5.1688723564147949 0 255 255
1.9922273159027100 -4.3578691482543945 4.7643380165100098 0 255 255
1.5418194532394409 -4.0032124519348145 4.8233208656311035 0 255 255
1.9167455434799194 -3.8697929382324219 5.0028858184814453 0 255 255
1.2262808084487915 -4.1128621101379395 4.8020811080932617 0 255 255
1.4432594776153564 -4.5309948921203613 4.8493771553039551 0 255 255
1.9974396228790283 -3.9924399852752686 4.8499846458435059 0 255 255
1.8287403583526611 -3.9078562259674072 4.9397902488708496 0 255 255
1.4711251258850098 -3.9201984405517578 4.7473635673522949 0 255 255
1.2069543600082397 -4.3212671279907227 4.8616399765014648 0 255 255
1.6537474393844604 -4.0945863723754883 4.8366017341613770 0 255 255
1.5665940046310425 -3.9908323287963867 4.4786024093627930 0 255 255
1.5950751304626465 -4.0098171234130859 4.6499519348144531 0 255 255
1.3569779396057129 -4.7060785293579102 5.1512122154235840 0 255 255
1.3823302984237671 -4.5727419853210449 4.8366456031799316 0 255 255
1.7874280214309692 -3.9036455154418945 4.9309978485107422 0 255 255
1.8619929552078247 -3.8700208663940430 4.9960584640502930 0 255 255
1.3275339603424072 -4.0166316032409668 4.6854248046875000 0 255 255
1.9546359777450562 -4.0504665374755859 4.6502113342285156 0 255 255
1.7876282930374146 -4.0330767631530762 4.7582721710205078 0 255 255
1.9356473684310913 -4.4262866973876953 4.8277826309204102 0 255 255
1.5951546430587769 -4.0149250030517578 4.7969102859497070 0 255 255
1.3206895589828491 -4.1676511764526367 4.3724241256713867 0 255 255
2.0055146217346191 -4.1185002326965332 4.7827258110046387 0 255 255
1.9512050151824951 -4.3892827033996582 4.8945055007934570 0 255 255
1.9745814800262451 -3.9956874847412109 4.7980513572692871 0 255 255
1.8510371446609497 -3.9262502193450928 4.4958028793334961 0 255 255
1.2812336683273315 -4.6039276123046875 4.9381275177001953 0 255 255
1.6991326808929443 -3.6813883781433105 4.4910764694213867 0 255 255
1.4356406927108765 -4.6594271659851074 4.9734649658203125 0 255 255
2.0099232196807861 -4.2286758422851563 4.8240337371826172 0 255 255
2.0752055644989014 -4.0897526741027832 5.2582807540893555 0 255 255
1.5049607753753662 -4.0206975936889648 4.8067717552185059 0 255 255
1.3878791332244873 -4.1602983474731445 4.6811099052429199 0 255 255
1.2493891716003418 -4.3623042106628418 4.8920321464538574 0 255 255
2.0577793121337891 -4.5572986602783203 5.5223984718322754 0 255 255
1.9158864021301270 -3.9772794246673584 5.1028490066528320 0 255 255
2.0424861907958984 -4.4665226936340332 5.1087098121643066 0 255 255
2.0364203453063965 -3.9730072021484375 4.9221587181091309 0 255 255
1.4857435226440430 -3.7779469490051270 4.2717971801757813 0 255 255
1.9639919996261597 -4.1123948097229004 4.4608726501464844 0 255 255
1.9812263250350952 -4.3546247482299805 4.9366488456726074 0 255 255
2.0650720596313477 -4.4570784568786621 5.1501421928405762 0 255 255
1.7613499164581299 -4.2340960502624512 5.2524337768554688 0 255 255
1.9131282567977905 -4.0974454879760742 4.2367076873779297 0 255 255
1.8024010658264160 -4.1167969703674316 4.7126221656799316 0 255 255
1.4451687335968018 -4.5464630126953125 4.8279542922973633 0 255 255
1.9982721805572510 -4.6841678619384766 5.1878771781921387 0 255 255
1.8875390291213989 -3.9606745243072510 4.5076479911804199 0 255 255
2.0049905776977539 -4.4040045738220215 5.0018329620361328 0 255 255
1.7992917299270630 -4.0525188446044922 5.3015599250793457 0 255 255
1.9739880561828613 -4.5946249961853027 5.0322313308715820 0 255 255
1.7779020071029663 -4.1770672798156738 5.0276083946228027 0 255 255
1.9971231222152710 -3.9691085815429688 4.6803574562072754 0 255 255
1.3346741199493408 -4.3671526908874512 4.8971118927001953 0 255 255
1.2815074920654297 -4.1675634384155273 4.4550995826721191 0 255 255
1.2394783496856689 -4.3677191734313965 4.7306504249572754 0 255 255
1.3759144544601440 -3.9880602359771729 4.5016746520996094 0 255 255
1.9751311540603638 -3.9515788555145264 4.7082839012145996 0 255 255
1.8588581085205078 -4.0467362403869629 4.6787052154541016 0 255 255
1.2527171373367310 -4.4357161521911621 4.8502407073974609 0 255 255
1.4149689674377441 -4.4534611701965332 4.9489812850952148 0 255 255
1.3841737508773804 -3.9868478775024414 4.8252344131469727 0 255 255
1.9102672338485718 -3.7391309738159180 4.8178663253784180 0 255 255
1.4046276807785034 -4.0110588073730469 4.8604326248168945 0 255 255
2.0073528289794922 -4.2305140495300293 4.8254442214965820 0 255 255
1.6476733684539795 -4.0461125373840332 4.9349794387817383 0 255 255
1.9361203908920288 -3.9236326217651367 4.5524706840515137 0 255 255
1.3525900840759277 -4.0021929740905762 4.7625985145568848 0 255 255
1.9922152757644653 -3.9455530643463135 4.8843655586242676 0 255 255
1.9624186754226685 -4.4255528450012207 4.8913345336914063 0 255 255
2.0040476322174072 -4.0001254081726074 4.7246823310852051 0 255 255
1.9643567800521851 -4.3968467712402344 4.8654193878173828 0 255 255
1.9934327602386475 -4.0449147224426270 4.6569452285766602 0 255 255
1.3613220453262329 -4.6792087554931641 5.0730352401733398 0 255 255
1.9467775821685791 -4.4108428955078125 4.8787584304809570 0 255 255
1.2972060441970825 -4.7488155364990234 5.2501678466796875 0 255 255
1.2673226594924927 -4.2274150848388672 4.6619577407836914 0 255 255
1.2719041109085083 -4.5131783485412598 4.9389882087707520 0 255 255
1.7638691663742065 -3.9705500602722168 4.7937798500061035 0 255 255
2.0329430103302002 -4.2298583984375000 4.8938202857971191 0 255 255
1.2643066644668579 -4.4331421852111816 4.7043457031250000 0 255 255
1.9361610412597656 -4.4283046722412109 4.8409852981567383 0 255 255
1.9281091690063477 -4.2143554687500000 4.8093614578247070 0 255 255
1.4001863002777100 -4.4013142585754395 4.8776693344116211 0 255 255
2.0143995285034180 -3.9940006732940674 4.7267231941223145 0 255 255
1.4269744157791138 -4.4695014953613281 4.7903461456298828 0 255 255
2.0017778873443604 -4.6013708114624023 5.0445284843444824 0 255 255
1.9897415637969971 -4.0605907440185547 4.8660631179809570 0 255 255
1.9076833724975586 -3.9548711776733398 4.7815985679626465 0 255 255
1.7775592803955078 -4.1872296333312988 4.8794083595275879 0 255 255
1.3029301166534424 -4.6518640518188477 5.0154018402099609 0 255 255
1.4472092390060425 -4.5331373214721680 4.8177094459533691 0 255 255
1.2519291639328003 -4.4288406372070313 4.7528705596923828 0 255 255
1.7746632099151611 -4.0320396423339844 4.7946648597717285 0 255 255
1.9594762325286865 -4.6687192916870117 5.0733551979064941 0 255 255
1.2578914165496826 -4.1330747604370117 4.7302889823913574 0 255 255
1.3239938020706177 -4.0019736289978027 4.7510852813720703 0 255 255
1.7701524496078491 -4.0220403671264648 4.5744633674621582 0 255 255
2.1006982326507568 -4.1770501136779785 5.4365158081054688 0 255 255
1.9759582281112671 -4.1877741813659668 4.6336064338684082 0 255 255
2.0142610073089600 -4.2672495841979980 4.8754625320434570 0 255 255
1.3521956205368042 -4.5154232978820801 4.9408307075500488 0 255 255
1.7376800775527954 -4.1989049911499023 4.9528336524963379 0 255 255
1.8463463783264160 -4.2047104835510254 5.3724679946899414 0 255 255
1.8831957578659058 -4.2400436401367188 4.4328927993774414 0 255 255
1.8879374265670776 -4.0406460762023926 4.8489322662353516 0 255 255
1.9891628026962280 -4.3241028785705566 4.9077095985412598 0 255 255
1.7774664163589478 -4.0398092269897461 4.7000284194946289 0 255 255
2.0318686962127686 -4.1588330268859863 4.9289712905883789 0 255 255
1.3883860111236572 -4.4251651763916016 4.8985939025878906 0 255 255
1.6578744649887085 -4.0840358734130859 4.7405509948730469 0 255 255
1.8882819414138794 -3.9480400085449219 4.6864261627197266 0 255 255
2.0782296657562256 -4.3853950500488281 5.1947436332702637 0 255 255
1.8612593412399292 -3.9920186996459961 4.3835959434509277 0 255 255
1.9074425697326660 -3.9853718280792236 4.3008832931518555 0 255 255
1.3541898727416992 -4.0143628120422363 4.7359271049499512 0 255 255
1.7409852743148804 -3.9481356143951416 4.9170689582824707 0 255 255
1.9306951761245728 -4.3817658424377441 4.8296718597412109 0 255 255
2.0098314285278320 -4.0022954940795898 4.8507952690124512 0 255 255
1.8023619651794434 -3.9610056877136230 4.6793465614318848 0 255 255
1.9399330615997314 -3.9178111553192139 4.8736748695373535 0 255 255
1.8265277147293091 -4.3250570297241211 5.1790299415588379 0 255 255
1.1951338052749634 -4.1391043663024902 4.8131065368652344 0 255 255
2.0330152511596680 -4.2960972785949707 4.9715371131896973 0 255 255
1.4968427419662476 -4.0183300971984863 4.9606680870056152 0 255 255
2.0202775001525879 -4.1409053802490234 4.8390450477600098 0 255 255
1.9294564723968506 -4.0162487030029297 4.7925500869750977 0 255 255
1.3160008192062378 -4.3946256637573242 4.9236350059509277 0 255 255
2.0100438594818115 -4.4134254455566406 4.9007029533386230 0 255 255
1.9814985990524292 -4.3853769302368164 4.9437623023986816 0 255 255
2.0124177932739258 -4.4169096946716309 4.9812626838684082 0 255 255
1.8691000938415527 -3.9102880954742432 4.8185563087463379 0 255 255
1.9635888338088989 -3.9763598442077637 4.9242758750915527 0 255 255
1.4882385730743408 -3.9599039554595947 4.8826336860656738 0 255 255
2.0423707962036133 -3.9508135318756104 5.0437688827514648 0 255 255
1.9723644256591797 -4.0464930534362793 4.6815214157104492 0 255 255
1.9909096956253052 -4.4805603027343750 5.0074763298034668 0 255 255
1.9107004404067993 -3.9767775535583496 4.8839397430419922 0 255 255
1.7601970434188843 -3.9152319431304932 4.9437856674194336 0 255 255
1.7977433204650879 -3.9160764217376709 5.0690455436706543 0 255 255
1.2688964605331421 -4.1321573257446289 4.7004599571228027 0 255 255
1.8886606693267822 -4.3220095634460449 4.4798750877380371 0 255 255
1.7058482170104980 -3.9483468532562256 4.9135246276855469 0 255 255
1.2756910324096680 -4.0396757125854492 4.7795495986938477 0 255 255
1.6993210315704346 -3.9102416038513184 4.9905023574829102 0 255 255
1.2889567613601685 -4.1124210357666016 4.7944717407226563 0 255 255
1.9423357248306274 -3.9320909976959229 4.9424552917480469 0 255 255
1.8926274776458740 -3.9642541408538818 4.8183960914611816 0 255 255
1.3241987228393555 -3.9892468452453613 4.7897534370422363 0 255 255
1.4430354833602905 -4.0108542442321777 4.9043569564819336 0 255 255
1.7445709705352783 -3.9466884136199951 5.0197939872741699 0 255 255
2.0002696514129639 -4.6617102622985840 5.1717929840087891 0 255 255
1.8740233182907104 -3.9387454986572266 4.8318729400634766 0 255 255
1.9773685932159424 -4.0925502777099609 4.7822184562683105 0 255 255
1.8217549324035645 -3.9378015995025635 4.7790913581848145 0 255 255
1.3680597543716431 -4.3870897293090820 4.8754506111145020 0 255 255
1.7645721435546875 -3.9475221633911133 4.9147167205810547 0 255 255
1.9188351631164551 -4.4106478691101074 4.8669123649597168 0 255 255
1.3712929487228394 -4.0629262924194336 4.7101497650146484 0 255 255
1.5839509963989258 -4.0302934646606445 4.6908874511718750 0 255 255
2.0237159729003906 -4.4410738945007324 5.1549663543701172 0 255 255
1.9092833995819092 -3.8551867008209229 5.0135993957519531 0 255 255
1.9804787635803223 -3.8980736732482910 4.9985585212707520 0 255 255
1.8152430057525635 -3.9746491909027100 4.7981901168823242 0 255 255
1.8898161649703979 -3.8979530334472656 4.6699967384338379 0 255 255
1.8697048425674438 -3.8675124645233154 5.0298013687133789 0 255 255
1.8851555585861206 -3.8557491302490234 4.9574718475341797 0 255 255
1.7930577993392944 -3.8831155300140381 5.0278468132019043 0 255 255
1.8252456188201904 -3.9294211864471436 4.9204254150390625 0 255 255
1.9013251066207886 -3.8354182243347168 4.9664955139160156 0 255 255
1.8399604558944702 -3.9325964450836182 4.8841366767883301 0 255 255
1.9805321693420410 -3.9731545448303223 4.7947130203247070 0 255 255
1.9761544466018677 -3.9863028526306152 4.6380538940429688 0 255 255
1.8081603050231934 -3.9027097225189209 4.9885973930358887 0 255 255
1.8805483579635620 -4.0289344787597656 4.7850265502929688 0 255 255
1.2490388154983521 -4.6993341445922852 5.1761474609375000 0 255 255
1.9859862327575684 -4.5730257034301758 5.0644383430480957 0 255 255
1.7954883575439453 -3.9766714572906494 4.8296389579772949 0 255 255
1.9602444171905518 -4.1562705039978027 4.7609071731567383 0 255 255
1.9425618648529053 -4.0279316902160645 4.7751760482788086 0 255 255
1.7000943422317505 -3.9145357608795166 4.9738759994506836 0 255 255
1.4088351726531982 -4.3438658714294434 4.8338608741760254 0 255 255
1.2734621763229370 -4.4393172264099121 4.9088315963745117 0 255 255
1.5802839994430542 -4.0171756744384766 4.5558567047119141 0 255 255
1.8043464422225952 -4.0676083564758301 4.5914921760559082 0 255 255
1.4783500432968140 -3.9801833629608154 4.8987102508544922 0 255 255
1.6598995923995972 -3.9164397716522217 4.9783425331115723 0 255 255
1.3705739974975586 -4.3743100166320801 4.8707318305969238 0 255 255
1.2122753858566284 -4.2962174415588379 4.8331604003906250 0 255 255
1.4028443098068237 -4.3970775604248047 4.8501687049865723 0 255 255
1.3849183320999146 -4.3402299880981445 4.8355703353881836 0 255 255
1.7009732723236084 -3.9028537273406982 4.9960370063781738 0 255 255
1.7400531768798828 -3.8865156173706055 5.0096039772033691 0 255 255
1.2547618150711060 -4.3057770729064941 4.8487243652343750 0 255 255
1.2974673509597778 -4.7260923385620117 5.2189173698425293 0 255 255
1.7494006156921387 -3.8736901283264160 5.0141086578369141 0 255 255
1.9525222778320313 -3.9998667240142822 4.8123135566711426 0 255 255
1.2307597398757935 -4.3455710411071777 4.8892331123352051 0 255 255
1.7603847980499268 -3.9301331043243408 4.9446716308593750 0 255 255
1.9961280822753906 -4.0612988471984863 4.7055444717407227 0 255 255
2.1785418987274170 -4.6230826377868652 6.0143709182739258 0 255 255
1.9642080068588257 -4.0446500778198242 4.9666929244995117 0 255 255
1.4019026756286621 -4.3706789016723633 4.8013744354248047 0 255 255
1.3061422109603882 -4.5807795524597168 4.8874106407165527 0 255 255
1.2418111562728882 -4.2950382232666016 4.8332991600036621 0 255 255
1.3362578153610229 -4.4052257537841797 4.9119195938110352 0 255 255
1.2929660081863403 -4.4181761741638184 4.9268097877502441 0 255 255
1.3787358999252319 -4.7166204452514648 5.1890454292297363 0 255 255
1.3518948554992676 -4.4767236709594727 4.9554667472839355 0 255 255
1.3120032548904419 -4.3162398338317871 4.8552184104919434 0 255 255
1.2496340274810791 -4.1603393554687500 4.7508449554443359 0 255 255
1.9973714351654053 -4.2601995468139648 4.8574175834655762 0 255 255
2.0159988403320313 -4.4669299125671387 5.0495557785034180 0 255 255
1.9195367097854614 -4.0682768821716309 4.7262520790100098 0 255 255
1.9213677644729614 -4.2045698165893555 4.7230820655822754 0 255 255
1.8757351636886597 -4.0932307243347168 4.8929820060729980 0 255 255
1.8397954702377319 -3.8827679157257080 4.8062548637390137 0 255 255
1.9703621864318848 -4.4223766326904297 4.9658236503601074 0 255 255
1.9872374534606934 -4.1313514709472656 4.6427946090698242 0 255 255
1.6941659450531006 -3.9854855537414551 4.8185305595397949 0 255 255
1.2582260370254517 -4.5190930366516113 4.9307422637939453 0 255 255
2.1002209186553955 -4.8701171875000000 5.5546150207519531 0 255 255
1.9667248725891113 -3.8988292217254639 4.9515728950500488 0 255 255
1.9843828678131104 -4.1917591094970703 4.7441964149475098 0 255 255
2.0131247043609619 -4.2583103179931641 4.8726658821105957 0 255 255
1.8155992031097412 -3.9175324440002441 4.2723126411437988 0 255 255
1.7004078626632690 -3.9460582733154297 4.9338464736938477 0 255 255
1.2851624488830566 -4.2844648361206055 4.4686040878295898 0 255 255
1.2888084650039673 -4.5477085113525391 4.9908351898193359 0 255 255
1.9883115291595459 -4.1431365013122559 4.7656941413879395 0 255 255
1.3589640855789185 -4.7226467132568359 5.0870323181152344 0 255 255
1.8650741577148438 -3.8790154457092285 4.9609236717224121 0 255 255
1.7998529672622681 -4.0092997550964355 4.7641234397888184 0 255 255
2.0130929946899414 -4.2806606292724609 4.8727149963378906 0 255 255
1.9074910879135132 -4.0300860404968262 4.7794423103332520 0 255 255
1.2529277801513672 -4.5279898643493652 4.8717479705810547 0 255 255
1.3268487453460693 -4.2325582504272461 4.3144431114196777 0 255 255
1.9371275901794434 -4.4885635375976563 4.7896847724914551 0 255 255
1.3409007787704468 -3.9911801815032959 4.7160053253173828 0 255 255
1.4492279291152954 -4.1127891540527344 4.7018947601318359 0 255 255
1.6682507991790771 -3.9063363075256348 4.9932761192321777 0 255 255
1.3190933465957642 -4.6047978401184082 4.9802513122558594 0 255 255
1.8275796175003052 -3.8845355510711670 5.0158901214599609 0 255 255
1.4508811235427856 -3.9820284843444824 4.9011545181274414 0 255 255
1.8910466432571411 -4.0715909004211426 4.7313842773437500 0 255 255
1.4412736892700195 -4.1484413146972656 4.7201147079467773 0 255 255
1.9292093515396118 -4.0996742248535156 4.7341427803039551 0 255 255
1.8021155595779419 -3.9976878166198730 4.7242045402526855 0 255 255
1.9139872789382935 -4.0740747451782227 4.7502770423889160 0 255 255
1.9552516937255859 -4.0689311027526855 4.7197618484497070 0 255 255
1.9878166913986206 -4.1267838478088379 4.8167171478271484 0 255 255
1.3751753568649292 -4.1526594161987305 4.7269830703735352 0 255 255
1.3950302600860596 -4.0287251472473145 4.8374476432800293 0 255 255
1.2968508005142212 -3.9875152111053467 4.7997846603393555 0 255 255
2.0586376190185547 -4.6038208007812500 5.3120732307434082 0 255 255
1.6852204799652100 -3.9151637554168701 4.9992380142211914 0 255 255
1.6794406175613403 -3.9245624542236328 4.9610257148742676 0 255 255
1.6985872983932495 -3.9241762161254883 4.9579682350158691 0 255 255
1.2872389554977417 -4.7459545135498047 5.2025804519653320 0 255 255
1.9727128744125366 -4.5760951042175293 4.8664884567260742 0 255 255
1.2828234434127808 -4.0360183715820313 4.7007699012756348 0 255 255
1.3705998659133911 -4.4745845794677734 5.0081996917724609 0 255 255
1.7411440610885620 -3.9161498546600342 5.0437536239624023 0 255 255
2.0218431949615479 -4.3521165847778320 4.9337878227233887 0 255 255
1.3736978769302368 -4.1590166091918945 4.7338633537292480 0 255 255
2.0614216327667236 -4.5551671981811523 5.2335882186889648 0 255 255
1.7806372642517090 -4.0662937164306641 4.6106023788452148 0 255 255
1.9288274049758911 -4.0890650749206543 4.7258768081665039 0 255 255
2.0311756134033203 -4.2160663604736328 4.9041090011596680 0 255 255
2.0229389667510986 -4.0019521713256836 5.0396480560302734 0 255 255
2.0309407711029053 -4.2389478683471680 4.9544010162353516 0 255 255
1.2814252376556396 -4.4779543876647949 4.9410037994384766 0 255 255
1.9764374494552612 -4.5540876388549805 4.9088673591613770 0 255 255
1.8010182380676270 -4.1195678710937500 4.7727284431457520 0 255 255
1.2531232833862305 -4.4834675788879395 4.9359951019287109 0 255 255
1.8927233219146729 -3.9555590152740479 4.9376697540283203 0 255 255
2.0306692123413086 -4.2954168319702148 4.8982195854187012 0 255 255
1.9923341274261475 -4.6890826225280762 5.1450939178466797 0 255 255
1.9347792863845825 -4.0777735710144043 4.7352609634399414 0 255 255
1.7347654104232788 -3.9063503742218018 4.9853587150573730 0 255 255
1.8752874135971069 -3.9820072650909424 4.7632770538330078 0 255 255
1.3981734514236450 -4.4837226867675781 4.9271063804626465 0 255 255
