//X Y Z R G B Original_cloud_index
623
1.6731493473052979 -0.0218409057706594 1.9827991724014282 255 0 255 1.000000
1.2695580720901489 -2.9183626174926758 3.8621470928192139 255 0 255 1.000000
1.3266429901123047 -0.1650343537330627 3.5176596641540527 255 0 255 1.000000
1.3178598880767822 -2.3925125598907471 3.4352293014526367 255 0 255 1.000000
1.1789624691009521 -2.0211679935455322 4.5437555313110352 255 0 255 1.000000
1.2576522827148438 -1.0822044610977173 4.0660781860351563 255 0 255 1.000000
0.7866104245185852 -3.4304542541503906 3.0182225704193115 255 0 255 1.000000
1.2639575004577637 -1.8436800241470337 4.6091761589050293 255 0 255 1.000000
1.2219771146774292 -1.2286527156829834 1.8299800157546997 255 0 255 1.000000
0.7862025499343872 -3.0627429485321045 2.4423980712890625 255 0 255 1.000000
1.6490966081619263 -3.7793464660644531 3.3821775913238525 255 0 255 1.000000
1.4064366817474365 -0.9537971019744873 2.7828989028930664 255 0 255 1.000000
1.7531766891479492 1.2873510122299194 3.5851976871490479 255 0 255 1.000000
1.3037941455841064 -0.5111150741577148 3.9511847496032715 255 0 255 1.000000
2.0137579441070557 -3.1192245483398438 4.1184120178222656 255 0 255 1.000000
1.5313304662704468 -3.2060127258300781 3.8832924365997314 255 0 255 1.000000
1.3673567771911621 -1.7694450616836548 3.1665985584259033 255 0 255 1.000000
1.4031109809875488 0.3767360448837280 2.6656727790832520 255 0 255 1.000000
1.2928699254989624 -2.9952037334442139 3.9289693832397461 255 0 255 1.000000
0.7376395463943481 -2.9203097820281982 2.3386850357055664 255 0 255 1.000000
1.3255964517593384 -0.5026956796646118 3.6600763797760010 255 0 255 1.000000
1.2359066009521484 -2.4851784706115723 3.2752721309661865 255 0 255 1.000000
1.4553474187850952 -0.5359154343605042 4.3653626441955566 255 0 255 1.000000
1.4501250982284546 -0.2551172375679016 2.2843406200408936 255 0 255 1.000000
1.2002161741256714 -1.6131293773651123 4.2692422866821289 255 0 255 1.000000
1.5959463119506836 0.1741919517517090 4.6137995719909668 255 0 255 1.000000
1.1561617851257324 -0.7408676743507385 3.3426797389984131 255 0 255 1.000000
1.6373424530029297 -0.1030580848455429 1.7623957395553589 255 0 255 1.000000
1.3074953556060791 -1.4305965900421143 2.7869637012481689 255 0 255 1.000000
1.2720700502395630 -0.9152835607528687 4.0023875236511230 255 0 255 1.000000
1.8799644708633423 -0.0405411310493946 1.9800220727920532 255 0 255 1.000000
1.3138847351074219 -1.5856448411941528 2.8873751163482666 255 0 255 1.000000
1.2046760320663452 -2.0090217590332031 4.5871372222900391 255 0 255 1.000000
1.3603404760360718 0.2591579258441925 3.3621582984924316 255 0 255 1.000000
1.2861250638961792 -1.7306569814682007 2.9457864761352539 255 0 255 1.000000
1.2127546072006226 -1.4905316829681396 4.0731019973754883 255 0 255 1.000000
1.3859102725982666 -0.2832064628601074 3.7347295284271240 255 0 255 1.000000
1.3857020139694214 -0.3899650573730469 3.9412348270416260 255 0 255 1.000000
1.3221752643585205 0.4841205477714539 2.8785071372985840 255 0 255 1.000000
1.2270413637161255 -2.9761688709259033 4.0974936485290527 255 0 255 1.000000
1.2395899295806885 -2.7209396362304688 3.5583257675170898 255 0 255 1.000000
1.2164849042892456 -3.0058035850524902 4.0123443603515625 255 0 255 1.000000
1.3285130262374878 -0.2519846856594086 3.5838661193847656 255 0 255 1.000000
1.3240846395492554 -0.3685703575611115 2.0716803073883057 255 0 255 1.000000
1.2291311025619507 -2.9115247726440430 4.1825690269470215 255 0 255 1.000000
1.2944132089614868 -2.6539497375488281 3.5707864761352539 255 0 255 1.000000
1.2363743782043457 -3.0638923645019531 4.0288152694702148 255 0 255 1.000000
1.0873744487762451 -3.4142839908599854 2.9705369472503662 255 0 255 1.000000
1.2663488388061523 -2.9165184497833252 3.6159908771514893 255 0 255 1.000000
1.3188105821609497 -3.0577719211578369 3.7931308746337891 255 0 255 1.000000
1.0347832441329956 -3.4387798309326172 2.0436825752258301 255 0 255 1.000000
1.3113870620727539 -2.1372337341308594 3.2686424255371094 255 0 255 1.000000
1.3326172828674316 -3.2411453723907471 3.8259227275848389 255 0 255 1.000000
1.1123595237731934 -3.0696892738342285 4.0144004821777344 255 0 255 1.000000
1.2908103466033936 -2.4072349071502686 3.3933417797088623 255 0 255 1.000000
1.2435511350631714 -2.9839296340942383 4.0150136947631836 255 0 255 1.000000
1.3719025850296021 -2.0511586666107178 3.3946194648742676 255 0 255 1.000000
1.1582136154174805 -2.5782995223999023 4.4803290367126465 255 0 255 1.000000
1.2880347967147827 -3.1707296371459961 3.7009367942810059 255 0 255 1.000000
1.4621003866195679 -0.3088346123695374 4.2689166069030762 255 0 255 1.000000
1.2320238351821899 -3.1127946376800537 3.8276627063751221 255 0 255 1.000000
1.0749255418777466 -2.9979147911071777 2.2160804271697998 255 0 255 1.000000
1.3778004646301270 -0.0189546626061201 4.2009849548339844 255 0 255 1.000000
0.9434602856636047 -3.1677038669586182 1.8433980941772461 255 0 255 1.000000
0.7794151902198792 -3.1632330417633057 2.2731800079345703 255 0 255 1.000000
1.2543859481811523 -3.0364401340484619 4.0044512748718262 255 0 255 1.000000
1.2680035829544067 -2.8594508171081543 3.7078015804290771 255 0 255 1.000000
1.3008059263229370 -2.3924973011016846 3.4987235069274902 255 0 255 1.000000
1.2037044763565063 -2.7758023738861084 3.8648951053619385 255 0 255 1.000000
1.3048968315124512 -2.4888002872467041 3.2332174777984619 255 0 255 1.000000
1.4386057853698730 -0.4405799508094788 4.4828667640686035 255 0 255 1.000000
1.2515206336975098 -2.9725027084350586 3.8580660820007324 255 0 255 1.000000
1.0077983140945435 -2.9188206195831299 2.3956654071807861 255 0 255 1.000000
1.1371974945068359 -3.2685046195983887 2.7342040538787842 255 0 255 1.000000
1.1671576499938965 -2.5683016777038574 4.2987389564514160 255 0 255 1.000000
1.0704696178436279 -2.8979437351226807 4.1909918785095215 255 0 255 1.000000
1.0500861406326294 -3.0031690597534180 2.7364325523376465 255 0 255 1.000000
1.5318022966384888 -3.3071646690368652 3.7970659732818604 255 0 255 1.000000
1.0785306692123413 -3.1672322750091553 3.6211633682250977 255 0 255 1.000000
1.2657368183135986 -2.9801182746887207 3.9018614292144775 255 0 255 1.000000
0.9978780746459961 -3.3160355091094971 3.8318228721618652 255 0 255 1.000000
1.1064383983612061 -2.9350581169128418 4.3223190307617188 255 0 255 1.000000
1.0568397045135498 -2.8812813758850098 3.9504957199096680 255 0 255 1.000000
1.4272602796554565 -0.0810605660080910 3.6823475360870361 255 0 255 1.000000
1.6355286836624146 0.4608531594276428 3.9448134899139404 255 0 255 1.000000
1.3029701709747314 -3.0637264251708984 3.7275080680847168 255 0 255 1.000000
2.4105186462402344 1.2969158887863159 3.5371704101562500 255 0 255 1.000000
1.2760443687438965 -2.7551255226135254 3.5860338211059570 255 0 255 1.000000
0.9443591833114624 -3.1516869068145752 1.8109428882598877 255 0 255 1.000000
0.9802474975585938 -2.8655588626861572 3.5735421180725098 255 0 255 1.000000
1.5413424968719482 -3.3570103645324707 3.8120243549346924 255 0 255 1.000000
1.2724809646606445 -3.0129404067993164 3.7167465686798096 255 0 255 1.000000
1.4103757143020630 -3.3381025791168213 3.8479812145233154 255 0 255 1.000000
1.2392370700836182 -3.0609021186828613 3.9296853542327881 255 0 255 1.000000
1.4902244806289673 0.4594488441944122 4.1609177589416504 255 0 255 1.000000
1.2143982648849487 -2.8870422840118408 4.1901836395263672 255 0 255 1.000000
1.1871265172958374 -2.0958948135375977 4.4129481315612793 255 0 255 1.000000
1.2669316530227661 -2.8507902622222900 3.5472459793090820 255 0 255 1.000000
1.3296474218368530 -2.6653766632080078 3.9247703552246094 255 0 255 1.000000
1.2825394868850708 -3.1553814411163330 3.7573697566986084 255 0 255 1.000000
1.2510857582092285 -3.1146614551544189 3.8231604099273682 255 0 255 1.000000
1.1717989444732666 -2.1775903701782227 4.5827207565307617 255 0 255 1.000000
1.2084282636642456 -2.9707303047180176 4.0227437019348145 255 0 255 1.000000
0.9560934305191040 -3.1941394805908203 1.8636875152587891 255 0 255 1.000000
1.2677143812179565 -3.1611986160278320 3.8969688415527344 255 0 255 1.000000
1.2729030847549438 -2.7127914428710938 3.6470904350280762 255 0 255 1.000000
1.2375179529190063 -2.9101905822753906 3.9725978374481201 255 0 255 1.000000
1.2517579793930054 -3.0965547561645508 3.8844995498657227 255 0 255 1.000000
1.6032159328460693 -3.3177330493927002 3.8914999961853027 255 0 255 1.000000
1.3002276420593262 -3.2040297985076904 3.7976002693176270 255 0 255 1.000000
1.3095269203186035 -2.3103590011596680 3.6092886924743652 255 0 255 1.000000
1.2757128477096558 -2.9959993362426758 3.7340035438537598 255 0 255 1.000000
1.2404072284698486 -2.9580509662628174 3.8735773563385010 255 0 255 1.000000
1.2334668636322021 -3.1411330699920654 3.9423663616180420 255 0 255 1.000000
1.3632298707962036 -3.2106726169586182 3.8914182186126709 255 0 255 1.000000
1.3218510150909424 -1.3749525547027588 3.0870945453643799 255 0 255 1.000000
1.3643169403076172 -1.4599672555923462 3.0344316959381104 255 0 255 1.000000
1.2769989967346191 -2.8746650218963623 3.6482338905334473 255 0 255 1.000000
1.1301332712173462 -2.9666235446929932 3.5579013824462891 255 0 255 1.000000
1.2405068874359131 -2.9962573051452637 3.9893548488616943 255 0 255 1.000000
1.4623467922210693 0.4877783954143524 3.2018930912017822 255 0 255 1.000000
1.2514750957489014 -3.1645705699920654 3.9978170394897461 255 0 255 1.000000
1.4961713552474976 0.6126214861869812 3.9590888023376465 255 0 255 1.000000
1.2558994293212891 -2.9378459453582764 3.8862557411193848 255 0 255 1.000000
1.5251060724258423 -3.2605855464935303 3.9411599636077881 255 0 255 1.000000
0.9964700341224670 -3.1928474903106689 1.9479669332504272 255 0 255 1.000000
0.9954472184181213 -3.1919186115264893 1.9479595422744751 255 0 255 1.000000
0.9897339344024658 -3.2057757377624512 1.9422740936279297 255 0 255 1.000000
0.9923409223556519 -3.2159595489501953 1.9300166368484497 255 0 255 1.000000
1.1254367828369141 -2.8292791843414307 4.3545222282409668 255 0 255 1.000000
1.4066692590713501 0.3958245813846588 3.8519148826599121 255 0 255 1.000000
1.1941297054290771 -1.9646126031875610 4.5101008415222168 255 0 255 1.000000
0.9596966505050659 -3.2619853019714355 1.9634209871292114 255 0 255 1.000000
1.2465302944183350 -2.9341218471527100 3.9285440444946289 255 0 255 1.000000
1.2669068574905396 -1.0800871849060059 4.0733380317687988 255 0 255 1.000000
1.0158315896987915 -3.4220404624938965 2.0984890460968018 255 0 255 1.000000
1.2351688146591187 -2.4841263294219971 4.1243987083435059 255 0 255 1.000000
0.9443592429161072 -3.1516864299774170 1.8109422922134399 255 0 255 1.000000
1.1699551343917847 -2.4513983726501465 4.6768269538879395 255 0 255 1.000000
0.9458817839622498 -3.5482914447784424 1.9679572582244873 255 0 255 1.000000
0.9321159124374390 -3.3316221237182617 2.0939290523529053 255 0 255 1.000000
0.9138051867485046 -3.3360135555267334 2.1012678146362305 255 0 255 1.000000
1.0755695104598999 -3.6630511283874512 2.5493130683898926 255 0 255 1.000000
1.3468954563140869 -0.9138527512550354 4.6531486511230469 255 0 255 1.000000
0.8606553673744202 -3.0009551048278809 3.2652268409729004 255 0 255 1.000000
1.4142907857894897 0.2681471109390259 4.0377454757690430 255 0 255 1.000000
1.1923096179962158 -1.2446378469467163 1.7528550624847412 255 0 255 1.000000
1.6528655290603638 1.1215661764144897 3.5649151802062988 255 0 255 1.000000
1.5859476327896118 0.2047479599714279 3.6255433559417725 255 0 255 1.000000
2.3265881538391113 1.3441207408905029 3.5063290596008301 255 0 255 1.000000
1.4828858375549316 -0.3052284121513367 4.3502416610717773 255 0 255 1.000000
0.8757652640342712 -3.0063261985778809 2.4333593845367432 255 0 255 1.000000
1.2593932151794434 -2.7959840297698975 3.2653198242187500 255 0 255 1.000000
1.2466884851455688 -3.1600668430328369 3.8644559383392334 255 0 255 1.000000
1.6533952951431274 -0.0819030106067657 1.9241114854812622 255 0 255 1.000000
1.3582216501235962 0.1893948316574097 3.2464549541473389 255 0 255 1.000000
1.4671450853347778 0.0959755554795265 2.1188561916351318 255 0 255 1.000000
1.3143221139907837 -1.1871980428695679 3.5987496376037598 255 0 255 1.000000
1.2361911535263062 -2.8828420639038086 3.6450219154357910 255 0 255 1.000000
1.2607494592666626 -3.2008364200592041 3.8098225593566895 255 0 255 1.000000
1.5280736684799194 0.4127546846866608 4.1163039207458496 255 0 255 1.000000
1.2460067272186279 -3.1062090396881104 3.9341576099395752 255 0 255 1.000000
1.2136316299438477 -3.0806746482849121 3.8357856273651123 255 0 255 1.000000
1.6138324737548828 -3.8935425281524658 3.0916149616241455 255 0 255 1.000000
0.6904252767562866 -3.3300032615661621 1.4483866691589355 255 0 255 1.000000
0.9116989374160767 -3.4834258556365967 3.4579777717590332 255 0 255 1.000000
0.9783034324645996 -3.1775338649749756 1.9112234115600586 255 0 255 1.000000
1.5421004295349121 -2.8460943698883057 4.3780665397644043 255 0 255 1.000000
1.0232353210449219 -2.9932050704956055 4.0557661056518555 255 0 255 1.000000
1.1977864503860474 -3.0454742908477783 4.0567865371704102 255 0 255 1.000000
0.8458499908447266 -3.1567428112030029 2.5431051254272461 255 0 255 1.000000
1.4637603759765625 -0.3547785580158234 1.5906075239181519 255 0 255 1.000000
0.8503816127777100 -3.2750234603881836 2.1480453014373779 255 0 255 1.000000
1.0643497705459595 -3.9127128124237061 2.7257943153381348 255 0 255 1.000000
1.2684224843978882 -4.0839104652404785 2.9079759120941162 255 0 255 1.000000
1.3035805225372314 -2.5531816482543945 3.5560500621795654 255 0 255 1.000000
0.9073926806449890 -3.1994531154632568 1.9915705919265747 255 0 255 1.000000
1.1713502407073975 -3.3906698226928711 3.5398643016815186 255 0 255 1.000000
0.8684885501861572 -3.3565418720245361 2.2665572166442871 255 0 255 1.000000
0.9383546113967896 -3.2973017692565918 2.2561938762664795 255 0 255 1.000000
1.0441749095916748 -3.7216241359710693 2.5302803516387939 255 0 255 1.000000
1.1821677684783936 -4.1005897521972656 2.9970703125000000 255 0 255 1.000000
0.9060376882553101 -3.2201592922210693 1.9148433208465576 255 0 255 1.000000
0.9159319400787354 -3.1996667385101318 1.9944994449615479 255 0 255 1.000000
1.2338458299636841 -3.0088276863098145 3.6171832084655762 255 0 255 1.000000
0.9603284597396851 -3.5070524215698242 2.1236500740051270 255 0 255 1.000000
2.0020058155059814 -3.9409105777740479 3.1988236904144287 255 0 255 1.000000
1.1745688915252686 -2.2850975990295410 4.6545920372009277 255 0 255 1.000000
1.1897169351577759 -3.0181741714477539 4.1350302696228027 255 0 255 1.000000
1.6196485757827759 -3.2399725914001465 3.8847947120666504 255 0 255 1.000000
1.1152540445327759 -2.9282121658325195 2.5051922798156738 255 0 255 1.000000
1.5338886976242065 -3.8464362621307373 3.2908427715301514 255 0 255 1.000000
1.2799952030181885 -2.9074368476867676 3.8434073925018311 255 0 255 1.000000
1.2587254047393799 -2.9211268424987793 3.8096892833709717 255 0 255 1.000000
1.2642616033554077 -3.1529576778411865 3.8086836338043213 255 0 255 1.000000
1.0880306959152222 -2.8639469146728516 4.1263551712036133 255 0 255 1.000000
0.9484699964523315 -3.1050791740417480 2.3650801181793213 255 0 255 1.000000
0.8418246507644653 -3.4483144283294678 2.9165086746215820 255 0 255 1.000000
0.8839752078056335 -3.1907382011413574 2.3924446105957031 255 0 255 1.000000
1.1519116163253784 -2.9910061359405518 3.9029741287231445 255 0 255 1.000000
1.3012427091598511 -2.5785686969757080 3.5344617366790771 255 0 255 1.000000
0.7345708608627319 -3.2050998210906982 2.3350713253021240 255 0 255 1.000000
1.2655485868453979 -3.0551154613494873 3.8274693489074707 255 0 255 1.000000
1.2765313386917114 -2.9117896556854248 3.6996381282806396 255 0 255 1.000000
1.0716966390609741 -2.8333814144134521 2.9291491508483887 255 0 255 1.000000
1.2254290580749512 -3.0973284244537354 4.0283389091491699 255 0 255 1.000000
1.3393715620040894 -0.0134633192792535 3.3259708881378174 255 0 255 1.000000
0.9905412197113037 -2.8689336776733398 2.7106461524963379 255 0 255 1.000000
1.3123323917388916 -0.5790694355964661 3.7192876338958740 255 0 255 1.000000
1.3118070363998413 -2.4591093063354492 3.4436354637145996 255 0 255 1.000000
1.3009740114212036 -3.1684072017669678 3.7667965888977051 255 0 255 1.000000
1.2913676500320435 -2.7108225822448730 3.6024568080902100 255 0 255 1.000000
1.2345153093338013 -3.1261715888977051 3.7055692672729492 255 0 255 1.000000
1.2114312648773193 -2.7906348705291748 4.0709662437438965 255 0 255 1.000000
1.1127097606658936 -2.5420999526977539 4.4323058128356934 255 0 255 1.000000
1.0317009687423706 -2.6379692554473877 3.8399140834808350 255 0 255 1.000000
1.1824996471405029 -2.8937671184539795 3.3243854045867920 255 0 255 1.000000
1.2892469167709351 -3.1724259853363037 3.8379633426666260 255 0 255 1.000000
1.2274663448333740 -3.0723497867584229 4.1452636718750000 255 0 255 1.000000
0.9473862051963806 -3.0128047466278076 2.3550670146942139 255 0 255 1.000000
1.2714480161666870 -2.9406826496124268 3.8482007980346680 255 0 255 1.000000
1.1481779813766479 -2.2436287403106689 4.5929064750671387 255 0 255 1.000000
1.1841371059417725 -2.8406777381896973 4.3358411788940430 255 0 255 1.000000
0.8635883927345276 -3.1095166206359863 2.3178176879882813 255 0 255 1.000000
1.2697864770889282 -2.9174263477325439 3.8781678676605225 255 0 255 1.000000
0.7557359337806702 -3.5328800678253174 3.0174047946929932 255 0 255 1.000000
1.1716152429580688 -2.2030224800109863 4.5440306663513184 255 0 255 1.000000
0.9064615368843079 -3.5404319763183594 2.8320770263671875 255 0 255 1.000000
1.1608858108520508 -2.2935297489166260 4.4758410453796387 255 0 255 1.000000
0.7630252242088318 -3.3414022922515869 2.7077863216400146 255 0 255 1.000000
0.8318843245506287 -3.4491772651672363 3.1469573974609375 255 0 255 1.000000
1.1838259696960449 -2.1783933639526367 4.4981389045715332 255 0 255 1.000000
1.1973084211349487 -2.9226930141448975 4.3551054000854492 255 0 255 1.000000
1.3300695419311523 -0.3157086074352264 3.5316259860992432 255 0 255 1.000000
1.2976723909378052 -2.5768465995788574 3.4810249805450439 255 0 255 1.000000
1.1723536252975464 -1.9062587022781372 4.5295066833496094 255 0 255 1.000000
1.2645070552825928 -3.0969491004943848 3.8004090785980225 255 0 255 1.000000
1.2651064395904541 -2.9923415184020996 3.8543179035186768 255 0 255 1.000000
1.2854361534118652 -3.8242633342742920 3.1965937614440918 255 0 255 1.000000
1.0256613492965698 -2.9359385967254639 3.9879786968231201 255 0 255 1.000000
0.9056509733200073 -3.6688208580017090 3.4014739990234375 255 0 255 1.000000
1.2020642757415771 -2.9816668033599854 3.8582413196563721 255 0 255 1.000000
0.9793070554733276 -3.1706938743591309 1.9348963499069214 255 0 255 1.000000
1.7626159191131592 1.5783382654190063 3.7641859054565430 255 0 255 1.000000
0.9552810788154602 -3.8177258968353271 3.2153248786926270 255 0 255 1.000000
1.2774964570999146 0.0109766451641917 3.0801713466644287 255 0 255 1.000000
1.3172434568405151 -2.4602842330932617 3.5170559883117676 255 0 255 1.000000
1.6549302339553833 -3.2046780586242676 3.8885855674743652 255 0 255 1.000000
1.3092334270477295 -3.0309791564941406 3.7408783435821533 255 0 255 1.000000
1.0224151611328125 -3.5272362232208252 2.0645232200622559 255 0 255 1.000000
1.1900275945663452 -2.8912110328674316 4.4027824401855469 255 0 255 1.000000
1.2677395343780518 -2.7236859798431396 3.4989612102508545 255 0 255 1.000000
0.8297554254531860 -3.6233904361724854 3.1942479610443115 255 0 255 1.000000
0.8898137807846069 -3.0070517063140869 2.3851594924926758 255 0 255 1.000000
1.2634495496749878 -3.0092184543609619 3.7314875125885010 255 0 255 1.000000
0.8565343618392944 -3.4970302581787109 2.8224549293518066 255 0 255 1.000000
0.8913064002990723 -3.1583464145660400 2.4256279468536377 255 0 255 1.000000
0.9322184324264526 -3.0325086116790771 3.2165713310241699 255 0 255 1.000000
0.8430739641189575 -3.2878701686859131 2.9159603118896484 255 0 255 1.000000
0.9423530697822571 -3.0594513416290283 2.3654057979583740 255 0 255 1.000000
0.8057528734207153 -2.9526059627532959 2.5723862648010254 255 0 255 1.000000
0.8681582212448120 -2.8438546657562256 2.7834429740905762 255 0 255 1.000000
0.8935869932174683 -3.1028509140014648 2.4182691574096680 255 0 255 1.000000
1.3700636625289917 -0.1882136166095734 4.0789079666137695 255 0 255 1.000000
0.8104659318923950 -3.3858783245086670 2.6437213420867920 255 0 255 1.000000
1.1929589509963989 -2.1181213855743408 4.5055747032165527 255 0 255 1.000000
0.9054110050201416 -2.9757370948791504 2.4421801567077637 255 0 255 1.000000
1.2985479831695557 -2.5244021415710449 3.4752595424652100 255 0 255 1.000000
0.8723239898681641 -3.3766939640045166 3.1461546421051025 255 0 255 1.000000
0.9283642172813416 -3.4030485153198242 2.8604600429534912 255 0 255 1.000000
0.8443250656127930 -3.2089924812316895 2.6939041614532471 255 0 255 1.000000
1.2905848026275635 -2.6101164817810059 3.5849950313568115 255 0 255 1.000000
1.1581865549087524 -2.1722941398620605 4.3426423072814941 255 0 255 1.000000
0.8918845057487488 -3.2000448703765869 2.6871609687805176 255 0 255 1.000000
0.9832739830017090 -3.8214006423950195 3.2174515724182129 255 0 255 1.000000
1.9425684213638306 0.0989521220326424 2.1008279323577881 255 0 255 1.000000
1.2235447168350220 -3.1127486228942871 3.8976342678070068 255 0 255 1.000000
0.8977637290954590 -3.1463558673858643 2.4094848632812500 255 0 255 1.000000
1.5587757825851440 -0.7203935384750366 4.4926471710205078 255 0 255 1.000000
1.0850893259048462 -3.3823988437652588 3.1023061275482178 255 0 255 1.000000
0.8854632973670959 -3.1071672439575195 2.4166178703308105 255 0 255 1.000000
1.3164149522781372 -0.1364244669675827 3.5233294963836670 255 0 255 1.000000
1.2813521623611450 -2.8491802215576172 3.6706931591033936 255 0 255 1.000000
1.3090294599533081 -2.5723161697387695 3.5700113773345947 255 0 255 1.000000
1.0465836524963379 -3.2112905979156494 3.1657209396362305 255 0 255 1.000000
0.8825114965438843 -3.4118072986602783 2.8655235767364502 255 0 255 1.000000
1.2641416788101196 -2.9504559040069580 3.8193805217742920 255 0 255 1.000000
1.2673258781433105 -2.7889933586120605 3.5985152721405029 255 0 255 1.000000
1.6219519376754761 0.0012017160188407 1.9764981269836426 255 0 255 1.000000
1.2843328714370728 -3.1426084041595459 3.6913034915924072 255 0 255 1.000000
1.1691248416900635 -2.3306906223297119 4.6644749641418457 255 0 255 1.000000
0.8947822451591492 -3.6976008415222168 3.2016160488128662 255 0 255 1.000000
1.5821716785430908 -3.8197786808013916 3.3160481452941895 255 0 255 1.000000
1.1633932590484619 -2.2417571544647217 4.6191854476928711 255 0 255 1.000000
1.2375609874725342 -3.1523270606994629 3.6030642986297607 255 0 255 1.000000
0.8745804429054260 -3.1990890502929688 2.5929064750671387 255 0 255 1.000000
1.2479203939437866 -3.0672690868377686 3.7145752906799316 255 0 255 1.000000
0.8945744037628174 -3.2109940052032471 2.4981873035430908 255 0 255 1.000000
0.7887578606605530 -3.3070662021636963 2.9524042606353760 255 0 255 1.000000
0.8408501744270325 -3.1852042675018311 2.6108474731445313 255 0 255 1.000000
0.8203622698783875 -3.4007217884063721 2.6952016353607178 255 0 255 1.000000
1.2325257062911987 -3.1861357688903809 3.9068200588226318 255 0 255 1.000000
0.7666639089584351 -3.2218453884124756 2.5655393600463867 255 0 255 1.000000
1.1786261796951294 -2.1506998538970947 4.5496478080749512 255 0 255 1.000000
0.7948598265647888 -3.2872922420501709 2.5779862403869629 255 0 255 1.000000
1.2148717641830444 -3.0581951141357422 4.0975804328918457 255 0 255 1.000000
0.8732679486274719 -3.1234881877899170 2.5168454647064209 255 0 255 1.000000
1.3218449354171753 -2.5481266975402832 3.6109616756439209 255 0 255 1.000000
0.8384194970130920 -3.3573975563049316 3.0921285152435303 255 0 255 1.000000
1.0001678466796875 -0.6720016002655029 1.3848769664764404 255 0 255 1.000000
1.2415577173233032 -2.4914698600769043 4.1110057830810547 255 0 255 1.000000
0.7326620817184448 -3.4712102413177490 2.7780640125274658 255 0 255 1.000000
0.7311261296272278 -3.4733672142028809 2.7754654884338379 255 0 255 1.000000
0.8787468075752258 -3.3487253189086914 2.6406168937683105 255 0 255 1.000000
0.8457717895507813 -3.0806798934936523 2.3285725116729736 255 0 255 1.000000
0.8499181270599365 -3.2365810871124268 2.7138364315032959 255 0 255 1.000000
1.1657460927963257 -2.2502176761627197 4.4225878715515137 255 0 255 1.000000
1.2265347242355347 -2.9204890727996826 4.1803460121154785 255 0 255 1.000000
0.7982393503189087 -3.3538925647735596 2.6464939117431641 255 0 255 1.000000
1.2630234956741333 -3.0203478336334229 3.7363722324371338 255 0 255 1.000000
1.2620358467102051 -3.1540188789367676 3.7507507801055908 255 0 255 1.000000
0.8198229670524597 -3.2177460193634033 2.4830000400543213 255 0 255 1.000000
1.2811279296875000 -3.1283133029937744 3.8382978439331055 255 0 255 1.000000
1.3553435802459717 -0.0938976928591728 4.1542525291442871 255 0 255 1.000000
1.3094387054443359 -3.0675320625305176 3.7568180561065674 255 0 255 1.000000
1.1798806190490723 -2.1955440044403076 4.6085591316223145 255 0 255 1.000000
0.8694549798965454 -3.3466880321502686 3.1879687309265137 255 0 255 1.000000
1.1453900337219238 -2.1954836845397949 4.3372302055358887 255 0 255 1.000000
1.1617596149444580 -2.1846890449523926 4.5686383247375488 255 0 255 1.000000
0.9436494708061218 -3.8583772182464600 3.2934927940368652 255 0 255 1.000000
1.2522614002227783 -3.1840574741363525 3.8561408519744873 255 0 255 1.000000
1.2145032882690430 -2.9180846214294434 3.4936473369598389 255 0 255 1.000000
1.2051429748535156 -2.7255237102508545 3.2643268108367920 255 0 255 1.000000
1.3318754434585571 -2.8772401809692383 3.8304786682128906 255 0 255 1.000000
1.3240579366683960 -2.5165231227874756 3.5910582542419434 255 0 255 1.000000
2.1262671947479248 -3.9342660903930664 3.1477015018463135 255 0 255 1.000000
1.3006182909011841 -1.9633768796920776 3.1294393539428711 255 0 255 1.000000
1.2900475263595581 -2.5742037296295166 3.4612255096435547 255 0 255 1.000000
1.2868033647537231 -3.0638954639434814 3.7512938976287842 255 0 255 1.000000
1.2744578123092651 -2.8819417953491211 3.7340354919433594 255 0 255 1.000000
0.9105625748634338 -3.0270044803619385 2.2551748752593994 255 0 255 1.000000
0.8098980784416199 -3.0584325790405273 2.3513867855072021 255 0 255 1.000000
0.8113940954208374 -3.2688729763031006 2.8239889144897461 255 0 255 1.000000
1.5544937849044800 -0.0218833312392235 1.9372818470001221 255 0 255 1.000000
1.2303621768951416 -2.9505245685577393 4.2387499809265137 255 0 255 1.000000
1.3331859111785889 -2.5283515453338623 3.6256103515625000 255 0 255 1.000000
1.2045792341232300 -2.5918405055999756 3.2675435543060303 255 0 255 1.000000
1.2695806026458740 -2.8430683612823486 3.6863873004913330 255 0 255 1.000000
1.9016485214233398 -0.0845073089003563 1.9479304552078247 255 0 255 1.000000
1.1918737888336182 -3.4608149528503418 3.3612508773803711 255 0 255 1.000000
1.2505774497985840 -3.0467829704284668 3.7522959709167480 255 0 255 1.000000
1.2016727924346924 -2.8198242187500000 3.4175903797149658 255 0 255 1.000000
1.2454236745834351 -2.3853154182434082 3.9327864646911621 255 0 255 1.000000
1.2985402345657349 -2.5004756450653076 3.4957821369171143 255 0 255 1.000000
1.3092790842056274 -2.5913631916046143 3.5497243404388428 255 0 255 1.000000
1.2548429965972900 -2.9408078193664551 3.8296601772308350 255 0 255 1.000000
1.2434400320053101 -2.9311585426330566 3.6051292419433594 255 0 255 1.000000
1.1827927827835083 -2.3805093765258789 4.7256011962890625 255 0 255 1.000000
1.2729811668395996 -3.0913972854614258 3.7960319519042969 255 0 255 1.000000
1.3355760574340820 -0.6244293451309204 4.0133423805236816 255 0 255 1.000000
1.3079477548599243 -2.9683325290679932 3.7466700077056885 255 0 255 1.000000
1.2777999639511108 -2.9222319126129150 3.6833982467651367 255 0 255 1.000000
1.2960914373397827 -2.5678861141204834 3.4777970314025879 255 0 255 1.000000
0.8000271320343018 -2.9955003261566162 2.2700667381286621 255 0 255 1.000000
1.2730969190597534 -3.0220587253570557 3.7401449680328369 255 0 255 1.000000
1.0276904106140137 -3.2360901832580566 3.2623298168182373 255 0 255 1.000000
1.3095040321350098 -3.0373685359954834 3.7686905860900879 255 0 255 1.000000
1.1128745079040527 -3.1139037609100342 3.5437307357788086 255 0 255 1.000000
1.2017195224761963 -2.5028994083404541 4.4813303947448730 255 0 255 1.000000
1.3558161258697510 -1.2149275541305542 2.7495071887969971 255 0 255 1.000000
1.0317175388336182 -3.0249381065368652 3.2819671630859375 255 0 255 1.000000
1.2874978780746460 -2.5318121910095215 3.6978111267089844 255 0 255 1.000000
1.5042661428451538 -1.4519717693328857 5.6187820434570313 255 0 255 1.000000
1.7266703844070435 -0.0456194952130318 1.9763324260711670 255 0 255 1.000000
0.7857104539871216 -3.0295987129211426 2.5522334575653076 255 0 255 1.000000
1.2952435016632080 -2.4777305126190186 3.5190446376800537 255 0 255 1.000000
0.8759514689445496 -3.3561487197875977 3.0310571193695068 255 0 255 1.000000
1.3310382366180420 -0.6427242159843445 3.7275664806365967 255 0 255 1.000000
1.3318622112274170 -0.0127722304314375 3.2547528743743896 255 0 255 1.000000
1.0257129669189453 -2.4017236232757568 3.8649885654449463 255 0 255 1.000000
1.3730617761611938 -0.3342405557632446 2.2474253177642822 255 0 255 1.000000
1.2898030281066895 -2.5351796150207520 3.5812041759490967 255 0 255 1.000000
1.1849621534347534 -0.4993889927864075 2.8474898338317871 255 0 255 1.000000
1.2820763587951660 -2.6877260208129883 3.6081504821777344 255 0 255 1.000000
1.1706949472427368 -2.1872322559356689 4.6451430320739746 255 0 255 1.000000
1.2891330718994141 -0.4153026342391968 2.3132474422454834 255 0 255 1.000000
1.0238089561462402 -3.2294697761535645 3.1870625019073486 255 0 255 1.000000
1.4782706499099731 -3.6005041599273682 3.4192841053009033 255 0 255 1.000000
1.4676409959793091 0.2451484501361847 2.3982763290405273 255 0 255 1.000000
0.8808103799819946 -3.1793434619903564 2.5871860980987549 255 0 255 1.000000
1.4126487970352173 -0.8321043848991394 3.8437414169311523 255 0 255 1.000000
1.2856689691543579 -3.0325171947479248 3.8767285346984863 255 0 255 1.000000
1.3153121471405029 -2.1703534126281738 3.3105649948120117 255 0 255 1.000000
1.3056285381317139 -2.6723797321319580 3.4278249740600586 255 0 255 1.000000
1.2397804260253906 -2.8713200092315674 3.5849306583404541 255 0 255 1.000000
1.3121713399887085 -3.2171049118041992 3.8633773326873779 255 0 255 1.000000
1.1759440898895264 -2.0549147129058838 4.5320177078247070 255 0 255 1.000000
1.2837597131729126 -2.5887982845306396 3.5162513256072998 255 0 255 1.000000
1.2841775417327881 -2.8131067752838135 3.7107648849487305 255 0 255 1.000000
1.5838453769683838 -0.0622815303504467 1.8229621648788452 255 0 255 1.000000
1.2541908025741577 -2.9127547740936279 3.9556469917297363 255 0 255 1.000000
1.4583247900009155 0.0201851837337017 2.3229708671569824 255 0 255 1.000000
1.3242298364639282 -0.7415006160736084 3.7811195850372314 255 0 255 1.000000
1.3583683967590332 -1.4544030427932739 2.9906735420227051 255 0 255 1.000000
1.1991778612136841 -2.9981801509857178 4.2044396400451660 255 0 255 1.000000
1.2846647500991821 -2.8627574443817139 3.6574792861938477 255 0 255 1.000000
1.2978224754333496 -2.6056866645812988 3.5901308059692383 255 0 255 1.000000
1.1489264965057373 -2.1501214504241943 4.5473909378051758 255 0 255 1.000000
1.4613592624664307 0.0235895160585642 2.3073329925537109 255 0 255 1.000000
1.3984743356704712 -1.4125833511352539 3.0376756191253662 255 0 255 1.000000
1.2252606153488159 -3.0843598842620850 4.0725607872009277 255 0 255 1.000000
0.7725834846496582 -3.0579957962036133 2.5320131778717041 255 0 255 1.000000
0.8569731712341309 -3.4020676612854004 3.3360683917999268 255 0 255 1.000000
1.2537593841552734 -3.1015901565551758 3.5877609252929688 255 0 255 1.000000
1.1905757188796997 -2.2282903194427490 4.6596426963806152 255 0 255 1.000000
1.5594915151596069 0.3121022582054138 4.2028965950012207 255 0 255 1.000000
0.9934060573577881 -2.3732900619506836 3.6403155326843262 255 0 255 1.000000
1.2890493869781494 -2.9886944293975830 3.7569296360015869 255 0 255 1.000000
1.1760287284851074 -2.1500117778778076 4.5300965309143066 255 0 255 1.000000
1.2612364292144775 -0.9879909157752991 3.7117865085601807 255 0 255 1.000000
1.1773742437362671 -2.3311707973480225 4.6082062721252441 255 0 255 1.000000
1.3069382905960083 -2.5294544696807861 3.4998075962066650 255 0 255 1.000000
1.5771824121475220 0.0026647881604731 1.9750401973724365 255 0 255 1.000000
1.0433986186981201 -2.9175190925598145 4.0681996345520020 255 0 255 1.000000
1.2804442644119263 -2.5732414722442627 3.4505827426910400 255 0 255 1.000000
1.9828828573226929 -0.3456639349460602 1.7143577337265015 255 0 255 1.000000
1.0451540946960449 -2.8945891857147217 4.1156682968139648 255 0 255 1.000000
1.1925979852676392 -2.9929590225219727 4.2834787368774414 255 0 255 1.000000
1.2938938140869141 -2.5200381278991699 3.5055062770843506 255 0 255 1.000000
1.4537552595138550 -0.2023676484823227 2.2819938659667969 255 0 255 1.000000
1.1691186428070068 -2.3390750885009766 4.6594185829162598 255 0 255 1.000000
2.0122606754302979 1.4142733812332153 3.4690940380096436 255 0 255 1.000000
1.2848078012466431 -2.8393490314483643 3.6421406269073486 255 0 255 1.000000
1.3049226999282837 -2.3923382759094238 3.4020388126373291 255 0 255 1.000000
1.4321917295455933 -0.4479016661643982 2.3864848613739014 255 0 255 1.000000
1.1729995012283325 -2.9259974956512451 4.3193159103393555 255 0 255 1.000000
0.8540523648262024 -3.0954811573028564 2.4955835342407227 255 0 255 1.000000
1.2484624385833740 -2.9686770439147949 3.7245633602142334 255 0 255 1.000000
1.1298773288726807 -2.7039065361022949 4.4235568046569824 255 0 255 1.000000
1.2448107004165649 -3.0020966529846191 4.0329747200012207 255 0 255 1.000000
1.3077093362808228 -2.2807569503784180 3.3098838329315186 255 0 255 1.000000
1.4889949560165405 0.0251281429082155 2.3693737983703613 255 0 255 1.000000
1.2623885869979858 -3.0407128334045410 3.8250532150268555 255 0 255 1.000000
1.2803306579589844 -2.9212830066680908 3.8301851749420166 255 0 255 1.000000
0.8745968341827393 -2.9237575531005859 2.4586005210876465 255 0 255 1.000000
0.7468859553337097 -3.3954265117645264 2.4052584171295166 255 0 255 1.000000
1.3631021976470947 -1.3472595214843750 4.9155488014221191 255 0 255 1.000000
1.0281817913055420 -3.1471407413482666 4.1515450477600098 255 0 255 1.000000
1.2942624092102051 -2.5373599529266357 3.5331866741180420 255 0 255 1.000000
1.2929795980453491 -2.3853669166564941 3.4210231304168701 255 0 255 1.000000
0.9024950861930847 -0.9939763545989990 1.4887931346893311 255 0 255 1.000000
1.9623918533325195 -0.0512992292642593 2.0076568126678467 255 0 255 1.000000
1.2998740673065186 -3.0494389533996582 3.7836341857910156 255 0 255 1.000000
1.2559547424316406 -3.0810503959655762 3.7983520030975342 255 0 255 1.000000
1.2698024511337280 -3.0059082508087158 3.7812509536743164 255 0 255 1.000000
1.2447925806045532 -3.1948249340057373 3.8692455291748047 255 0 255 1.000000
1.6999216079711914 0.0028115911409259 2.0272779464721680 255 0 255 1.000000
1.2604526281356812 -2.6478283405303955 3.4228668212890625 255 0 255 1.000000
1.1958098411560059 -2.0631558895111084 4.4679861068725586 255 0 255 1.000000
1.0981849431991577 -2.6955647468566895 4.2866287231445313 255 0 255 1.000000
1.4374417066574097 0.3059113621711731 2.5583910942077637 255 0 255 1.000000
1.2743165493011475 -2.9111819267272949 3.6678442955017090 255 0 255 1.000000
1.0678110122680664 -2.8870944976806641 4.0667629241943359 255 0 255 1.000000
1.2636544704437256 -2.5731320381164551 3.4212532043457031 255 0 255 1.000000
1.1794028282165527 -2.9952003955841064 4.0106763839721680 255 0 255 1.000000
1.4047353267669678 -0.0382587090134621 2.1723213195800781 255 0 255 1.000000
1.9449504613876343 -0.0826824903488159 1.9359667301177979 255 0 255 1.000000
1.0305675268173218 -2.8797018527984619 3.8122720718383789 255 0 255 1.000000
1.3811175823211670 -1.3766560554504395 2.8964815139770508 255 0 255 1.000000
1.2892075777053833 -2.6486096382141113 3.5988233089447021 255 0 255 1.000000
1.5986003875732422 -3.2421894073486328 3.8218505382537842 255 0 255 1.000000
1.2176260948181152 -1.9114396572113037 4.4837923049926758 255 0 255 1.000000
1.2927862405776978 -2.8133165836334229 3.6529922485351563 255 0 255 1.000000
0.8275311589241028 -3.3854477405548096 3.1603429317474365 255 0 255 1.000000
1.1715403795242310 -2.0264625549316406 4.4801096916198730 255 0 255 1.000000
1.3032726049423218 -2.4869759082794189 3.5016660690307617 255 0 255 1.000000
1.2027398347854614 -3.0559952259063721 4.0510897636413574 255 0 255 1.000000
1.0819628238677979 -3.0435698032379150 2.9211325645446777 255 0 255 1.000000
1.2586613893508911 -2.9610607624053955 3.6799819469451904 255 0 255 1.000000
1.3587615489959717 0.2207794189453125 3.9775130748748779 255 0 255 1.000000
1.2030929327011108 -2.1743509769439697 4.6482229232788086 255 0 255 1.000000
1.3102585077285767 -2.3762526512145996 3.4012176990509033 255 0 255 1.000000
1.2393915653228760 -2.7195916175842285 3.4079778194427490 255 0 255 1.000000
1.2866152524948120 -2.7230463027954102 3.5887846946716309 255 0 255 1.000000
1.5371754169464111 0.5603214502334595 3.0087099075317383 255 0 255 1.000000
1.2223869562149048 -2.8635637760162354 3.5031394958496094 255 0 255 1.000000
1.2751036882400513 -2.9305527210235596 3.6797575950622559 255 0 255 1.000000
1.1055284738540649 -2.7628171443939209 3.1212289333343506 255 0 255 1.000000
1.5137965679168701 -3.2124252319335938 3.8585717678070068 255 0 255 1.000000
1.1029224395751953 -2.9593632221221924 2.5466861724853516 255 0 255 1.000000
1.3168702125549316 -2.4035124778747559 3.4192273616790771 255 0 255 1.000000
1.0628486871719360 -2.5453412532806396 3.6776485443115234 255 0 255 1.000000
1.1766647100448608 -2.0360691547393799 4.5287437438964844 255 0 255 1.000000
1.3154442310333252 -0.3926660120487213 3.6263463497161865 255 0 255 1.000000
1.3133909702301025 -2.1418929100036621 3.3033416271209717 255 0 255 1.000000
1.2037321329116821 -1.4016817808151245 4.1191029548645020 255 0 255 1.000000
1.2665444612503052 -3.0406160354614258 3.7597985267639160 255 0 255 1.000000
1.3209056854248047 -2.3940181732177734 3.4558358192443848 255 0 255 1.000000
1.3110718727111816 -2.4196543693542480 3.4076881408691406 255 0 255 1.000000
1.3645014762878418 -2.8425464630126953 3.9377605915069580 255 0 255 1.000000
1.3495160341262817 -2.3377459049224854 3.5268640518188477 255 0 255 1.000000
1.2973425388336182 -2.6832823753356934 3.5642876625061035 255 0 255 1.000000
0.8546094298362732 -2.9030144214630127 2.6764702796936035 255 0 255 1.000000
1.2703961133956909 -2.7660710811614990 3.6244726181030273 255 0 255 1.000000
1.3044730424880981 -2.4206840991973877 3.4166603088378906 255 0 255 1.000000
1.3016067743301392 -2.4464807510375977 3.4957709312438965 255 0 255 1.000000
1.3174449205398560 -2.3910145759582520 3.4074928760528564 255 0 255 1.000000
1.2051981687545776 -1.8860281705856323 4.4810647964477539 255 0 255 1.000000
1.1879450082778931 -2.8088068962097168 3.2855579853057861 255 0 255 1.000000
1.2436488866806030 -1.0110319852828979 4.0246739387512207 255 0 255 1.000000
1.3005658388137817 -3.1148986816406250 3.7013301849365234 255 0 255 1.000000
1.4242323637008667 -0.9834859371185303 2.7574343681335449 255 0 255 1.000000
1.3162233829498291 -2.3464374542236328 3.3806426525115967 255 0 255 1.000000
1.3836194276809692 -2.2183842658996582 3.5744867324829102 255 0 255 1.000000
1.2835777997970581 -2.4952154159545898 3.3900926113128662 255 0 255 1.000000
1.3765459060668945 -3.4830482006072998 3.6358838081359863 255 0 255 1.000000
1.4705969095230103 -0.0000605236418778 2.2824058532714844 255 0 255 1.000000
1.3596744537353516 -1.6840679645538330 3.1017367839813232 255 0 255 1.000000
1.9067952632904053 0.2495312690734863 2.2157311439514160 255 0 255 1.000000
0.8068048954010010 -3.2095236778259277 3.0559172630310059 255 0 255 1.000000
1.0310403108596802 -2.9032270908355713 3.7333924770355225 255 0 255 1.000000
1.5328918695449829 -3.6838052272796631 3.4121358394622803 255 0 255 1.000000
1.3044248819351196 -2.3082458972930908 3.4245326519012451 255 0 255 1.000000
1.2193534374237061 -2.9426951408386230 4.2193818092346191 255 0 255 1.000000
1.2996958494186401 -2.5064549446105957 3.4694490432739258 255 0 255 1.000000
1.2676852941513062 -2.4143915176391602 3.2572529315948486 255 0 255 1.000000
1.2635302543640137 -2.8155212402343750 3.6449201107025146 255 0 255 1.000000
1.0782467126846313 -2.8609879016876221 4.1436762809753418 255 0 255 1.000000
1.2044456005096436 -3.0990009307861328 3.6154470443725586 255 0 255 1.000000
1.0918248891830444 -2.8781416416168213 4.1361255645751953 255 0 255 1.000000
1.3050310611724854 -2.3525493144989014 3.3642237186431885 255 0 255 1.000000
1.1914443969726563 -2.9936835765838623 3.8143665790557861 255 0 255 1.000000
1.6909776926040649 0.0498158633708954 2.0251340866088867 255 0 255 1.000000
1.2637488842010498 -3.0445835590362549 3.6418046951293945 255 0 255 1.000000
1.4097304344177246 -3.2392029762268066 3.9206097126007080 255 0 255 1.000000
0.7936011552810669 -3.3410480022430420 2.7078089714050293 255 0 255 1.000000
1.8186126947402954 -3.3786988258361816 3.8354032039642334 255 0 255 1.000000
1.2694368362426758 -3.0606522560119629 4.0034584999084473 255 0 255 1.000000
0.9769917130470276 -3.1047422885894775 2.8173196315765381 255 0 255 1.000000
1.1923162937164307 -2.4805459976196289 4.8076863288879395 255 0 255 1.000000
1.2946525812149048 -2.6674945354461670 3.5712654590606689 255 0 255 1.000000
1.2784991264343262 -2.3534650802612305 3.2256362438201904 255 0 255 1.000000
1.2557142972946167 -3.0430791378021240 3.7605717182159424 255 0 255 1.000000
1.0613000392913818 -2.5901846885681152 2.5534265041351318 255 0 255 1.000000
1.1655040979385376 -2.5888717174530029 2.9806132316589355 255 0 255 1.000000
1.5478826761245728 -3.2568635940551758 3.8574221134185791 255 0 255 1.000000
1.2183643579483032 -2.6547422409057617 3.2602305412292480 255 0 255 1.000000
1.2838661670684814 -2.5347342491149902 3.4309389591217041 255 0 255 1.000000
1.4078816175460815 -2.7821946144104004 4.2117304801940918 255 0 255 1.000000
1.1861135959625244 -2.4722561836242676 3.6087894439697266 255 0 255 1.000000
1.2219403982162476 -1.6766902208328247 4.4118585586547852 255 0 255 1.000000
1.1870300769805908 -2.9207024574279785 4.3798875808715820 255 0 255 1.000000
1.1859098672866821 -2.2445034980773926 4.5903258323669434 255 0 255 1.000000
1.2865080833435059 -2.8858046531677246 3.6807279586791992 255 0 255 1.000000
1.2116445302963257 -2.9445390701293945 3.8487405776977539 255 0 255 1.000000
1.1974078416824341 -2.1194722652435303 4.5414733886718750 255 0 255 1.000000
1.2250614166259766 -2.6474144458770752 3.3106043338775635 255 0 255 1.000000
1.3604902029037476 -0.4165187180042267 4.1982502937316895 255 0 255 1.000000
1.5624970197677612 -3.2469928264617920 3.9629507064819336 255 0 255 1.000000
1.4587361812591553 -3.3123672008514404 3.8980336189270020 255 0 255 1.000000
1.1431187391281128 -2.3630392551422119 4.1890149116516113 255 0 255 1.000000
1.2902541160583496 -3.1276903152465820 3.9310781955718994 255 0 255 1.000000
1.2994264364242554 -2.0619268417358398 3.1897702217102051 255 0 255 1.000000
1.3759851455688477 0.1755431294441223 3.3887729644775391 255 0 255 1.000000
1.2726676464080811 -2.8570058345794678 3.7055075168609619 255 0 255 1.000000
1.3010588884353638 -3.0650618076324463 3.7668011188507080 255 0 255 1.000000
1.2827346324920654 -2.7156424522399902 3.5850026607513428 255 0 255 1.000000
1.2105396986007690 -2.6697554588317871 3.2900595664978027 255 0 255 1.000000
1.3878515958786011 -2.3260016441345215 3.6764442920684814 255 0 255 1.000000
1.3854086399078369 -0.1923381686210632 3.9766962528228760 255 0 255 1.000000
1.6431121826171875 -3.2426652908325195 3.8279480934143066 255 0 255 1.000000
1.2677434682846069 -2.5499315261840820 3.3769702911376953 255 0 255 1.000000
1.2113158702850342 -2.8639554977416992 3.5744504928588867 255 0 255 1.000000
1.6455397605895996 -0.0903620645403862 1.9039039611816406 255 0 255 1.000000
1.1823127269744873 -1.9916601181030273 4.4134268760681152 255 0 255 1.000000
2.2320938110351563 0.0966057851910591 2.1233866214752197 255 0 255 1.000000
1.4731813669204712 0.1336031407117844 2.2251963615417480 255 0 255 1.000000
1.1880469322204590 -2.8432314395904541 3.2596466541290283 255 0 255 1.000000
1.2641048431396484 -2.8604023456573486 3.6261172294616699 255 0 255 1.000000
1.0034275054931641 -3.6227083206176758 2.0271406173706055 255 0 255 1.000000
1.5518788099288940 0.5441380143165588 3.9062001705169678 255 0 255 1.000000
1.1644774675369263 -2.2061622142791748 4.6098437309265137 255 0 255 1.000000
1.4085687398910522 -0.8114036321640015 2.5515105724334717 255 0 255 1.000000
1.2312687635421753 -2.9523322582244873 4.1035766601562500 255 0 255 1.000000
1.2121042013168335 -1.7773532867431641 4.3174176216125488 255 0 255 1.000000
1.5327997207641602 0.0681384727358818 2.0485641956329346 255 0 255 1.000000
1.2389012575149536 -2.8406164646148682 3.5056943893432617 255 0 255 1.000000
1.2511775493621826 -2.1098260879516602 4.1271386146545410 255 0 255 1.000000
1.2969334125518799 -2.6132225990295410 3.5112442970275879 255 0 255 1.000000
1.2456868886947632 -3.1932487487792969 3.8303091526031494 255 0 255 1.000000
1.2619500160217285 -3.0729920864105225 3.8862757682800293 255 0 255 1.000000
1.2222404479980469 -1.9110348224639893 4.5264744758605957 255 0 255 1.000000
1.3008276224136353 -2.4669139385223389 3.4758813381195068 255 0 255 1.000000
1.2132010459899902 -2.4939143657684326 3.1923718452453613 255 0 255 1.000000
1.3084692955017090 -2.3469376564025879 3.3729879856109619 255 0 255 1.000000
1.2427593469619751 -3.1648852825164795 3.9076240062713623 255 0 255 1.000000
1.1666289567947388 -2.0143525600433350 4.4464411735534668 255 0 255 1.000000
1.3134843111038208 -3.0260183811187744 3.7359261512756348 255 0 255 1.000000
1.1570298671722412 -2.2610790729522705 4.5978937149047852 255 0 255 1.000000
1.2632133960723877 -2.9132544994354248 3.6908516883850098 255 0 255 1.000000
1.7996870279312134 0.0834036171436310 2.0843577384948730 255 0 255 1.000000
1.2798612117767334 -2.8359179496765137 3.6555764675140381 255 0 255 1.000000
1.1652126312255859 -2.0136792659759521 4.5002574920654297 255 0 255 1.000000
0.9463841915130615 -3.0535092353820801 2.3639271259307861 255 0 255 1.000000
1.3236117362976074 -2.2974796295166016 3.3610846996307373 255 0 255 1.000000
1.3160493373870850 -2.3209102153778076 3.4133424758911133 255 0 255 1.000000
1.3595809936523438 -2.7150719165802002 3.8549904823303223 255 0 255 1.000000
1.3204160928726196 -2.1992294788360596 3.2855083942413330 255 0 255 1.000000
1.2963716983795166 -2.8899064064025879 3.7685332298278809 255 0 255 1.000000
1.2967767715454102 -2.8372066020965576 3.7299194335937500 255 0 255 1.000000
1.3279616832733154 -2.5945115089416504 3.8455886840820313 255 0 255 1.000000
1.4248962402343750 0.5620026588439941 3.9787940979003906 255 0 255 1.000000
1.2588136196136475 -2.9097831249237061 3.6464633941650391 255 0 255 1.000000
1.2964841127395630 -2.5784966945648193 3.4880099296569824 255 0 255 1.000000
1.1860611438751221 -2.9739525318145752 4.1242914199829102 255 0 255 1.000000
1.3672529458999634 0.6118019819259644 3.0159220695495605 255 0 255 1.000000
0.8809989094734192 -2.6683659553527832 2.4013245105743408 255 0 255 1.000000
1.2610772848129272 -2.9901516437530518 3.8744337558746338 255 0 255 1.000000
1.2619276046752930 -3.0783402919769287 3.7725381851196289 255 0 255 1.000000
1.4680787324905396 0.0406387150287628 2.1329114437103271 255 0 255 1.000000
1.1473945379257202 -2.0214521884918213 4.4937663078308105 255 0 255 1.000000
1.2988700866699219 -2.5435342788696289 3.5240907669067383 255 0 255 1.000000
1.1611083745956421 -2.1124081611633301 4.4554123878479004 255 0 255 1.000000
