//X Y Z R G B
685
-4.6734209060668945 4.3536467552185059 -3.1526744365692139 239 174 31
-4.2242794036865234 4.0166578292846680 -2.9586186408996582 239 174 31
-4.4711594581604004 4.2713074684143066 -2.9497251510620117 239 174 31
-4.5730624198913574 4.9417452812194824 -3.5616712570190430 239 174 31
-4.3683772087097168 4.0481028556823730 -2.5921304225921631 239 174 31
-4.6334924697875977 4.2118854522705078 -3.2964522838592529 239 174 31
-4.4157791137695313 4.1031360626220703 -2.6487400531768799 239 174 31
-4.5305299758911133 4.1446280479431152 -2.8784775733947754 239 174 31
-4.6241540908813477 4.1112532615661621 -3.0459263324737549 239 174 31
-4.5358405113220215 4.1492552757263184 -2.7240586280822754 239 174 31
-4.2430024147033691 3.9984517097473145 -3.1260929107666016 239 174 31
-4.5314655303955078 4.1639165878295898 -3.0508103370666504 239 174 31
-4.2259721755981445 3.6622586250305176 -2.8896963596343994 239 174 31
-4.5390543937683105 4.0546112060546875 -3.3122124671936035 239 174 31
-4.4720544815063477 4.1135935783386230 -2.7448325157165527 239 174 31
-4.6317300796508789 4.1697487831115723 -3.0387146472930908 239 174 31
-4.3287372589111328 4.2342252731323242 -3.1526997089385986 239 174 31
-4.2410168647766113 4.0689563751220703 -3.2120435237884521 239 174 31
-4.5971746444702148 4.1734781265258789 -3.0220572948455811 239 174 31
-4.2780342102050781 4.0059289932250977 -3.2111754417419434 239 174 31
-4.3299765586853027 4.1349058151245117 -3.1791830062866211 239 174 31
-4.2433562278747559 4.2416114807128906 -3.0748302936553955 239 174 31
-4.5097632408142090 4.1097416877746582 -3.1908638477325439 239 174 31
-4.5594773292541504 4.1795902252197266 -3.3989181518554688 239 174 31
-4.5344123840332031 4.0935058593750000 -3.0975861549377441 239 174 31
-4.4535064697265625 4.4139118194580078 -3.4434401988983154 239 174 31
-4.6014876365661621 4.4195017814636230 -3.1751995086669922 239 174 31
-4.3161616325378418 4.5126748085021973 -3.2074296474456787 239 174 31
-4.5827074050903320 4.2138023376464844 -2.9053153991699219 239 174 31
-4.3008294105529785 4.0988178253173828 -3.2365059852600098 239 174 31
-4.5906739234924316 4.1088809967041016 -3.1084873676300049 239 174 31
-4.2999539375305176 4.0804924964904785 -3.2046222686767578 239 174 31
-4.6011524200439453 4.4548177719116211 -2.9298243522644043 239 174 31
-4.5840201377868652 4.2754788398742676 -2.8935463428497314 239 174 31
-4.2828569412231445 4.0386390686035156 -2.8370389938354492 239 174 31
-4.5408792495727539 4.1138706207275391 -3.2690701484680176 239 174 31
-4.2435264587402344 4.2389307022094727 -3.2266900539398193 239 174 31
-4.3774228096008301 4.2042117118835449 -3.0577175617218018 239 174 31
-4.4884514808654785 4.1408100128173828 -3.1458446979522705 239 174 31
-4.6004171371459961 4.0899109840393066 -3.2333333492279053 239 174 31
-4.6281971931457520 4.1690330505371094 -3.1115980148315430 239 174 31
-4.5369124412536621 4.0975732803344727 -3.4554116725921631 239 174 31
-4.3180232048034668 4.2573966979980469 -3.0827338695526123 239 174 31
-4.5202989578247070 4.6242890357971191 -3.3205046653747559 239 174 31
-4.4353637695312500 4.1669402122497559 -2.7071890830993652 239 174 31
-4.3985252380371094 3.7043881416320801 -2.9282684326171875 239 174 31
-4.4830846786499023 4.1408500671386719 -3.1004283428192139 239 174 31
-4.3259820938110352 4.1883068084716797 -3.2769098281860352 239 174 31
-4.5792179107666016 4.4977612495422363 -2.8515186309814453 239 174 31
-4.2767143249511719 4.1859822273254395 -3.1001634597778320 239 174 31
-4.5781540870666504 4.2309880256652832 -2.9671089649200439 239 174 31
-4.6144509315490723 4.2040038108825684 -2.9386861324310303 239 174 31
-4.5959920883178711 4.3139271736145020 -2.7777781486511230 239 174 31
-4.3409938812255859 4.0883655548095703 -3.2591860294342041 239 174 31
-4.4661817550659180 4.0329051017761230 -3.5211629867553711 239 174 31
-4.3151831626892090 4.0885820388793945 -3.3193435668945313 239 174 31
-4.5546345710754395 4.0298671722412109 -3.4241425991058350 239 174 31
-4.3948402404785156 4.3528699874877930 -3.3376066684722900 239 174 31
-4.4996457099914551 4.3302741050720215 -3.0479321479797363 239 174 31
-4.4637227058410645 4.2547082901000977 -2.9774589538574219 239 174 31
-4.3430480957031250 4.0788798332214355 -3.2763886451721191 239 174 31
-4.5109481811523438 4.4183144569396973 -2.6937317848205566 239 174 31
-4.3300118446350098 4.2319936752319336 -2.9974975585937500 239 174 31
-4.4986367225646973 4.2613081932067871 -2.7296187877655029 239 174 31
-4.5632162094116211 4.1559791564941406 -3.0492987632751465 239 174 31
-4.2799015045166016 4.1803059577941895 -2.9978511333465576 239 174 31
-4.4964790344238281 4.1533536911010742 -3.1066396236419678 239 174 31
-4.3937401771545410 4.1173839569091797 -3.4199845790863037 239 174 31
-4.3283381462097168 4.0815525054931641 -3.3041291236877441 239 174 31
-4.6574883460998535 4.0900387763977051 -3.2045156955718994 239 174 31
-4.3446245193481445 4.1575846672058105 -3.1714463233947754 239 174 31
-4.4825663566589355 4.0687441825866699 -3.3480129241943359 239 174 31
-4.3260111808776855 4.1456093788146973 -3.1804604530334473 239 174 31
-4.5846133232116699 4.2846889495849609 -2.7417736053466797 239 174 31
-4.3117017745971680 4.0714178085327148 -3.2878098487854004 239 174 31
-4.5799121856689453 4.3210749626159668 -2.7753832340240479 239 174 31
-4.6174883842468262 4.1206917762756348 -3.1235082149505615 239 174 31
-4.2948794364929199 4.0897903442382813 -3.2016720771789551 239 174 31
-4.4990797042846680 4.0552372932434082 -3.1633446216583252 239 174 31
-4.4724950790405273 4.1598081588745117 -3.1099567413330078 239 174 31
-4.4956631660461426 4.1227965354919434 -2.6567060947418213 239 174 31
-4.4360489845275879 4.2342820167541504 -2.9486806392669678 239 174 31
-4.2772650718688965 4.0963592529296875 -3.3064920902252197 239 174 31
-4.4492921829223633 4.1087522506713867 -3.2285399436950684 239 174 31
-4.5440611839294434 4.1949543952941895 -3.0524950027465820 239 174 31
-4.4955267906188965 4.1933493614196777 -3.0175862312316895 239 174 31
-4.5095615386962891 4.2743077278137207 -2.9590773582458496 239 174 31
-4.2442975044250488 4.1774640083312988 -3.0995049476623535 239 174 31
-4.5813088417053223 4.1827945709228516 -3.1062123775482178 239 174 31
-4.5394411087036133 4.1812067031860352 -2.6319158077239990 239 174 31
-4.5292420387268066 4.1304030418395996 -3.2221832275390625 239 174 31
-4.4606766700744629 4.2270169258117676 -3.0094721317291260 239 174 31
-4.4703617095947266 4.5698900222778320 -3.0083589553833008 239 174 31
-4.3226017951965332 4.2290024757385254 -3.0575151443481445 239 174 31
-4.5762629508972168 4.1838588714599609 -3.0340795516967773 239 174 31
-4.5071969032287598 4.1599402427673340 -3.1222562789916992 239 174 31
-4.5521035194396973 4.0478324890136719 -2.9504561424255371 239 174 31
-4.5729756355285645 4.2649059295654297 -2.7522122859954834 239 174 31
-4.5879325866699219 4.1500020027160645 -3.0965886116027832 239 174 31
-4.4437842369079590 4.1372690200805664 -3.0346314907073975 239 174 31
-4.1285443305969238 3.0055141448974609 -2.2053408622741699 239 174 31
-4.5648198127746582 4.0380635261535645 -3.2948768138885498 239 174 31
-4.5531363487243652 4.4379773139953613 -2.7714061737060547 239 174 31
-4.4463458061218262 3.9915030002593994 -3.5241012573242188 239 174 31
-4.3436994552612305 3.3866181373596191 -2.6585710048675537 239 174 31
-4.6073241233825684 4.3402047157287598 -2.9749429225921631 239 174 31
-4.5994119644165039 4.1806268692016602 -3.0074737071990967 239 174 31
-4.4882712364196777 4.0158863067626953 -3.0232753753662109 239 174 31
-4.5565876960754395 4.1270532608032227 -3.3605792522430420 239 174 31
-4.4547605514526367 4.0201091766357422 -2.8329813480377197 239 174 31
-4.5105581283569336 4.3857903480529785 -3.0215578079223633 239 174 31
-4.0276007652282715 2.8552432060241699 -2.2834413051605225 239 174 31
-4.6624107360839844 4.0933313369750977 -3.2090296745300293 239 174 31
-4.2489171028137207 4.2078595161437988 -3.1401054859161377 239 174 31
-4.3822889328002930 4.1158852577209473 -2.8973395824432373 239 174 31
-4.3569555282592773 4.3292016983032227 -3.0891067981719971 239 174 31
-4.5099205970764160 4.3797521591186523 -2.7277588844299316 239 174 31
-4.5835151672363281 4.1031684875488281 -3.1841535568237305 239 174 31
-4.6078619956970215 4.1366653442382813 -3.0228698253631592 239 174 31
-4.2675585746765137 4.1421289443969727 -3.1988782882690430 239 174 31
-4.4555368423461914 4.0840263366699219 -3.1785724163055420 239 174 31
-4.4815397262573242 4.0092191696166992 -3.2352278232574463 239 174 31
-4.2522096633911133 4.3655271530151367 -3.1725978851318359 239 174 31
-4.2058987617492676 3.6921660900115967 -2.7509422302246094 239 174 31
-4.6356587409973145 4.0623750686645508 -3.2068951129913330 239 174 31
-4.2337207794189453 3.5148169994354248 -2.8416390419006348 239 174 31
-4.4430384635925293 4.0924792289733887 -3.2650916576385498 239 174 31
-4.4435763359069824 4.1662387847900391 -3.0893778800964355 239 174 31
-4.4319357872009277 4.0904936790466309 -3.5274875164031982 239 174 31
-4.4667420387268066 4.4715228080749512 -3.0398063659667969 239 174 31
-4.3779811859130859 4.2225661277770996 -3.0255653858184814 239 174 31
-4.5879740715026855 4.1891818046569824 -3.0030741691589355 239 174 31
-4.4404869079589844 3.9450273513793945 -3.2282876968383789 239 174 31
-4.6720519065856934 4.1300215721130371 -3.0181143283843994 239 174 31
-4.4821033477783203 4.2265439033508301 -2.7439475059509277 239 174 31
-4.4143471717834473 4.2190580368041992 -3.0980887413024902 239 174 31
-4.6560144424438477 4.1557188034057617 -3.0261797904968262 239 174 31
-4.4488787651062012 4.0099592208862305 -3.5079176425933838 239 174 31
-4.6227321624755859 4.0646791458129883 -3.2385108470916748 239 174 31
-4.6165175437927246 4.0784816741943359 -3.3215489387512207 239 174 31
-4.3767042160034180 4.0770769119262695 -3.1534817218780518 239 174 31
-4.2669830322265625 3.3648893833160400 -2.6603016853332520 239 174 31
-4.5583581924438477 4.4668011665344238 -3.2095310688018799 239 174 31
-4.2412519454956055 4.2445654869079590 -3.0577459335327148 239 174 31
-4.6572098731994629 4.1495141983032227 -3.2910656929016113 239 174 31
-4.6153984069824219 4.1223511695861816 -3.1517753601074219 239 174 31
-4.3842391967773438 4.2018666267395020 -3.0087299346923828 239 174 31
-4.5991888046264648 4.1960992813110352 -3.2173249721527100 239 174 31
-4.2435393333435059 4.3053297996520996 -3.1014363765716553 239 174 31
-4.2366137504577637 4.2895393371582031 -3.1431612968444824 239 174 31
-4.4446511268615723 3.9626350402832031 -3.2289960384368896 239 174 31
-3.9383306503295898 3.1635499000549316 -2.6802785396575928 239 174 31
-4.4566259384155273 4.3414797782897949 -2.8509378433227539 239 174 31
-4.2765407562255859 4.2614941596984863 -3.1001081466674805 239 174 31
-4.4759340286254883 3.5856628417968750 -2.7875251770019531 239 174 31
-4.3596425056457520 4.0855484008789063 -2.7162370681762695 239 174 31
-4.4377074241638184 4.0703883171081543 -3.3945035934448242 239 174 31
-4.2575802803039551 3.5748069286346436 -3.0145306587219238 239 174 31
-4.3923206329345703 4.2062282562255859 -3.0264832973480225 239 174 31
-4.0748972892761230 2.8887429237365723 -2.1777539253234863 239 174 31
-4.5361042022705078 4.0098991394042969 -3.2076776027679443 239 174 31
-3.9569680690765381 2.5686454772949219 -2.1304552555084229 239 174 31
-4.2413487434387207 4.3205351829528809 -3.2107884883880615 239 174 31
-4.4697170257568359 3.9258224964141846 -3.3212449550628662 239 174 31
-4.2862610816955566 3.8274683952331543 -2.7538571357727051 239 174 31
-4.6063451766967773 4.5740885734558105 -2.7664272785186768 239 174 31
-4.1892223358154297 3.0388765335083008 -2.3967487812042236 239 174 31
-4.2485413551330566 4.1507234573364258 -3.1527023315429688 239 174 31
-4.5014805793762207 4.1342763900756836 -3.1769540309906006 239 174 31
-4.5784034729003906 4.0029621124267578 -2.9698202610015869 239 174 31
-4.3258919715881348 4.1122350692749023 -3.0267999172210693 239 174 31
-4.4226660728454590 3.9481685161590576 -3.0806419849395752 239 174 31
-4.3981385231018066 4.2208824157714844 -3.1423802375793457 239 174 31
-4.5857887268066406 4.0727281570434570 -3.1048641204833984 239 174 31
-4.2227406501770020 4.0785174369812012 -3.1566507816314697 239 174 31
-4.4122524261474609 4.3734254837036133 -2.9347519874572754 239 174 31
-4.3875622749328613 4.2826561927795410 -3.0583941936492920 239 174 31
-4.4224691390991211 4.3472361564636230 -3.0668370723724365 239 174 31
-4.2595195770263672 4.1337566375732422 -2.9496238231658936 239 174 31
-4.4784774780273438 3.9063193798065186 -2.9939684867858887 239 174 31
-4.3411302566528320 4.0640969276428223 -3.3004493713378906 239 174 31
-4.4912047386169434 4.3343005180358887 -2.7310507297515869 239 174 31
-4.3560819625854492 4.2208542823791504 -3.0627405643463135 239 174 31
-4.3660693168640137 3.8600823879241943 -2.7706284523010254 239 174 31
-4.4607725143432617 4.1854262351989746 -3.1121420860290527 239 174 31
-4.4161205291748047 4.0434031486511230 -3.2764744758605957 239 174 31
-4.4294681549072266 4.1672997474670410 -2.6182625293731689 239 174 31
-4.4837956428527832 4.1503667831420898 -3.1594917774200439 239 174 31
-4.6149444580078125 4.4091539382934570 -2.7263784408569336 239 174 31
-4.4687485694885254 4.2120223045349121 -2.6413700580596924 239 174 31
-4.6183137893676758 4.3650603294372559 -2.8175380229949951 239 174 31
-3.9353179931640625 2.6818683147430420 -2.3337211608886719 239 174 31
-4.6159400939941406 4.5017347335815430 -2.7304489612579346 239 174 31
-4.4943065643310547 4.4990177154541016 -3.2996077537536621 239 174 31
-4.4064483642578125 4.1619362831115723 -2.9813752174377441 239 174 31
-4.1095104217529297 2.8269274234771729 -2.1690001487731934 239 174 31
-4.5925846099853516 4.1971907615661621 -2.9661078453063965 239 174 31
-4.5151066780090332 4.1621890068054199 -2.7051830291748047 239 174 31
-4.4744324684143066 4.1880536079406738 -2.6232278347015381 239 174 31
-3.9490919113159180 2.6248998641967773 -2.1307101249694824 239 174 31
-4.3741846084594727 4.2354965209960938 -2.9381206035614014 239 174 31
-4.5658421516418457 4.2801914215087891 -3.4039123058319092 239 174 31
-4.3592677116394043 3.7444000244140625 -2.5407185554504395 239 174 31
-4.0681161880493164 2.8046190738677979 -2.1446573734283447 239 174 31
-4.0515842437744141 2.7380194664001465 -2.2318181991577148 239 174 31
-4.5112948417663574 3.9493196010589600 -3.2760663032531738 239 174 31
-4.5868973731994629 4.1758809089660645 -2.9894130229949951 239 174 31
-4.2300872802734375 3.6738786697387695 -2.8709561824798584 239 174 31
-4.3229560852050781 4.2578673362731934 -3.0019652843475342 239 174 31
-4.4493012428283691 4.2670764923095703 -3.0001480579376221 239 174 31
-4.2870640754699707 4.1124567985534668 -3.1192810535430908 239 174 31
-4.4315848350524902 4.0473694801330566 -3.4608354568481445 239 174 31
-4.4640784263610840 4.0584440231323242 -3.4702622890472412 239 174 31
-4.5266270637512207 4.3575792312622070 -2.7597031593322754 239 174 31
-4.3061723709106445 4.2254691123962402 -2.9837973117828369 239 174 31
-4.5398263931274414 4.1289949417114258 -3.5070457458496094 239 174 31
-4.5846085548400879 4.0082440376281738 -2.9887306690216064 239 174 31
-4.5761160850524902 4.1855354309082031 -2.9904649257659912 239 174 31
-4.5599293708801270 4.1986060142517090 -2.9172248840332031 239 174 31
-4.5463857650756836 4.0813398361206055 -2.9466769695281982 239 174 31
-4.2992506027221680 4.0757436752319336 -2.8930749893188477 239 174 31
-4.6051592826843262 4.0104727745056152 -2.9221286773681641 239 174 31
-4.0793728828430176 2.8052935600280762 -2.1763687133789063 239 174 31
-4.4208126068115234 4.1920313835144043 -2.7518150806427002 239 174 31
-4.2383155822753906 4.0778508186340332 -2.9797742366790771 239 174 31
-4.3903245925903320 4.4108867645263672 -3.2342967987060547 239 174 31
-4.4484815597534180 3.8042271137237549 -2.6226277351379395 239 174 31
-4.5728526115417480 4.2362070083618164 -2.8391201496124268 239 174 31
-4.5613222122192383 4.1075196266174316 -3.2198579311370850 239 174 31
-4.4214239120483398 4.0392980575561523 -3.3376240730285645 239 174 31
-4.4591145515441895 4.2218327522277832 -2.9364604949951172 239 174 31
-4.5699849128723145 4.0952730178833008 -3.0996263027191162 239 174 31
-4.4841542243957520 4.2314286231994629 -2.7473089694976807 239 174 31
-4.6393747329711914 4.1157894134521484 -2.9873661994934082 239 174 31
-4.5433645248413086 4.1589989662170410 -3.0313286781311035 239 174 31
-4.5315756797790527 4.0769805908203125 -3.2336704730987549 239 174 31
-4.4462695121765137 4.3778643608093262 -3.2278223037719727 239 174 31
-4.5336942672729492 4.1916360855102539 -3.0927429199218750 239 174 31
-4.5256867408752441 4.1923360824584961 -3.0486397743225098 239 174 31
-4.5902395248413086 4.3063488006591797 -2.8842487335205078 239 174 31
-4.3388962745666504 4.1035475730895996 -3.3327412605285645 239 174 31
-3.9929833412170410 2.5438435077667236 -2.1351804733276367 239 174 31
-4.3226037025451660 4.2016625404357910 -3.0663216114044189 239 174 31
-4.5496716499328613 4.6838312149047852 -2.9952955245971680 239 174 31
-4.3219017982482910 4.0873885154724121 -3.2000184059143066 239 174 31
-4.3964929580688477 4.2511167526245117 -2.9602868556976318 239 174 31
-4.2428970336914063 4.0929794311523438 -3.1044585704803467 239 174 31
-4.3249750137329102 4.4452815055847168 -3.4075596332550049 239 174 31
-4.5853266716003418 4.5794482231140137 -2.8441276550292969 239 174 31
-4.2436509132385254 4.0742650032043457 -3.1612312793731689 239 174 31
-4.3643794059753418 4.0517439842224121 -3.2028107643127441 239 174 31
-4.6120295524597168 4.1826262474060059 -2.9945313930511475 239 174 31
-4.5924401283264160 4.1370940208435059 -3.2338888645172119 239 174 31
-4.4920096397399902 4.0963077545166016 -2.6982510089874268 239 174 31
-4.5131316184997559 4.3633270263671875 -2.6902635097503662 239 174 31
-4.4059915542602539 4.1096649169921875 -2.6568610668182373 239 174 31
-4.4982171058654785 4.2022590637207031 -3.0174012184143066 239 174 31
-4.4187388420104980 4.0766339302062988 -2.6014535427093506 239 174 31
-4.4107537269592285 4.2972660064697266 -3.0004706382751465 239 174 31
-4.2851181030273438 4.2024517059326172 -3.0600168704986572 239 174 31
-4.3530788421630859 4.1544938087463379 -2.8606078624725342 239 174 31
-4.5536627769470215 4.0390572547912598 -3.1496691703796387 239 174 31
-4.3136520385742188 4.1658349037170410 -3.0965740680694580 239 174 31
-4.5785503387451172 4.3013362884521484 -2.7685060501098633 239 174 31
-4.5542402267456055 4.0659828186035156 -2.9530217647552490 239 174 31
-4.2400016784667969 4.1698212623596191 -3.0787239074707031 239 174 31
-4.5684161186218262 4.1771640777587891 -3.0290007591247559 239 174 31
-4.4292078018188477 4.0433673858642578 -3.2635812759399414 239 174 31
-4.3495039939880371 4.1036434173583984 -3.2923231124877930 239 174 31
-4.3855781555175781 4.0675144195556641 -3.3662111759185791 239 174 31
-4.3506274223327637 4.2310175895690918 -2.9483451843261719 239 174 31
-4.4778819084167480 4.1376385688781738 -2.7102432250976563 239 174 31
-4.2526617050170898 4.1949286460876465 -3.1345753669738770 239 174 31
-4.5537323951721191 4.4183130264282227 -2.7940950393676758 239 174 31
-4.3541588783264160 4.1291151046752930 -2.8326220512390137 239 174 31
-4.4511942863464355 4.2417421340942383 -2.6766889095306396 239 174 31
-4.3431787490844727 4.0590205192565918 -3.3363080024719238 239 174 31
-4.2798299789428711 4.2137022018432617 -3.0359113216400146 239 174 31
-4.4689998626708984 4.2373809814453125 -2.9862458705902100 239 174 31
-4.2038736343383789 3.4456546306610107 -2.7911338806152344 239 174 31
-4.4552426338195801 4.2703719139099121 -2.9312481880187988 239 174 31
-4.3132152557373047 4.2015457153320313 -2.9341361522674561 239 174 31
-4.4854698181152344 4.1313247680664063 -2.6937792301177979 239 174 31
-4.2453026771545410 3.8099679946899414 -2.9848103523254395 239 174 31
-4.6221971511840820 4.0726165771484375 -3.0907168388366699 239 174 31
-4.3141031265258789 4.1248021125793457 -3.2729573249816895 239 174 31
-4.4313445091247559 4.1227393150329590 -3.1005234718322754 239 174 31
-4.3731160163879395 4.2505469322204590 -3.2122104167938232 239 174 31
-4.5162277221679688 3.9014697074890137 -2.8724968433380127 239 174 31
-4.6787571907043457 4.1135001182556152 -3.1454188823699951 239 174 31
-4.3982143402099609 4.4608774185180664 -3.3925292491912842 239 174 31
-4.5883669853210449 4.3770337104797363 -2.7113606929779053 239 174 31
-4.3703074455261230 3.9640352725982666 -3.1957316398620605 239 174 31
-4.5731244087219238 4.3357615470886230 -2.7074549198150635 239 174 31
-4.5861082077026367 4.1885557174682617 -2.9991695880889893 239 174 31
-4.3266134262084961 4.2152037620544434 -3.4150760173797607 239 174 31
-4.5809483528137207 4.0617470741271973 -3.3090453147888184 239 174 31
-4.4228086471557617 4.1124095916748047 -3.4068641662597656 239 174 31
-4.6397552490234375 4.2515897750854492 -3.4170033931732178 239 174 31
-4.3074479103088379 3.4598588943481445 -2.5205552577972412 239 174 31
-4.6160054206848145 4.5153994560241699 -3.2630198001861572 239 174 31
-3.8989520072937012 2.7645125389099121 -2.4370048046112061 239 174 31
-4.2895321846008301 4.1512188911437988 -3.0229566097259521 239 174 31
-4.4335122108459473 3.9838855266571045 -3.4859364032745361 239 174 31
-4.4934477806091309 4.0819807052612305 -3.4770920276641846 239 174 31
-4.3200235366821289 4.2442049980163574 -3.2594897747039795 239 174 31
-4.3342108726501465 4.2827215194702148 -3.3398356437683105 239 174 31
-4.6704096794128418 4.1923899650573730 -3.0368785858154297 239 174 31
-4.5855493545532227 4.4517979621887207 -2.7171161174774170 239 174 31
-4.1640191078186035 3.1360623836517334 -2.3390586376190186 239 174 31
-4.4175295829772949 4.2746448516845703 -2.9383397102355957 239 174 31
-4.4410958290100098 3.8575053215026855 -3.1658070087432861 239 174 31
-4.3120446205139160 4.2344288825988770 -3.0540125370025635 239 174 31
-4.5659079551696777 4.2302355766296387 -2.9430263042449951 239 174 31
-4.3817062377929688 3.5546875000000000 -2.6114468574523926 239 174 31
-4.2500438690185547 4.1130919456481934 -2.9882297515869141 239 174 31
-4.3421001434326172 4.2703552246093750 -3.0365264415740967 239 174 31
-4.4007434844970703 4.1015400886535645 -2.8827004432678223 239 174 31
-4.3545708656311035 4.0716366767883301 -3.3239874839782715 239 174 31
-4.2772483825683594 3.9741201400756836 -3.1130185127258301 239 174 31
-4.4600830078125000 4.2609839439392090 -2.9353423118591309 239 174 31
-4.6129608154296875 4.2675480842590332 -3.0122840404510498 239 174 31
-4.4264736175537109 4.3722362518310547 -2.9813952445983887 239 174 31
-4.4459996223449707 3.9883668422698975 -3.4760603904724121 239 174 31
-4.3139042854309082 4.0615758895874023 -3.2820422649383545 239 174 31
-4.4899682998657227 3.7780935764312744 -3.1267249584197998 239 174 31
-4.1988816261291504 3.5574312210083008 -2.7459614276885986 239 174 31
-4.3723211288452148 4.2536048889160156 -3.3568973541259766 239 174 31
-4.4940114021301270 4.2101573944091797 -2.9075884819030762 239 174 31
-4.5484590530395508 4.1480746269226074 -3.1812169551849365 239 174 31
-4.4234271049499512 4.2155842781066895 -2.6971075534820557 239 174 31
-4.3238677978515625 4.1465935707092285 -2.9294221401214600 239 174 31
-4.6001925468444824 4.0944366455078125 -3.1544971466064453 239 174 31
-4.4499773979187012 4.6106472015380859 -3.3604373931884766 239 174 31
-4.6313486099243164 4.2399811744689941 -2.9416046142578125 239 174 31
-4.3882465362548828 4.2852444648742676 -3.0247063636779785 239 174 31
-4.2440466880798340 4.1570911407470703 -3.1025886535644531 239 174 31
-4.6564164161682129 4.1343364715576172 -3.0406026840209961 239 174 31
-4.4825110435485840 4.3421096801757813 -2.9446451663970947 239 174 31
-4.4748744964599609 4.5226211547851563 -3.2665200233459473 239 174 31
-4.3647460937500000 4.2126030921936035 -2.9415836334228516 239 174 31
-4.4368987083435059 4.2626247406005859 -3.1602234840393066 239 174 31
-4.4456892013549805 4.1478958129882813 -2.6270236968994141 239 174 31
-4.4125952720642090 4.2235021591186523 -3.0439252853393555 239 174 31
-4.4770035743713379 4.3056864738464355 -2.7429125308990479 239 174 31
-4.5304641723632813 4.0576314926147461 -3.1970479488372803 239 174 31
-4.5695266723632813 4.1149864196777344 -3.1152224540710449 239 174 31
-4.3041715621948242 4.1977767944335938 -3.1136388778686523 239 174 31
-4.4572100639343262 4.0384650230407715 -3.3257167339324951 239 174 31
-4.4347162246704102 4.0274081230163574 -3.2674911022186279 239 174 31
-4.5946345329284668 4.3240633010864258 -2.8536550998687744 239 174 31
-4.5469751358032227 4.1065559387207031 -3.3697943687438965 239 174 31
-4.6334314346313477 4.4958143234252930 -3.0003356933593750 239 174 31
-4.4280710220336914 4.2564139366149902 -2.7041296958923340 239 174 31
-4.2390499114990234 4.2140192985534668 -3.0920140743255615 239 174 31
-4.6971411705017090 4.4840617179870605 -3.0189664363861084 239 174 31
-4.6045937538146973 4.2498211860656738 -2.9515650272369385 239 174 31
-4.5156359672546387 4.2069740295410156 -2.7122988700866699 239 174 31
-4.2696237564086914 4.2192268371582031 -3.0276622772216797 239 174 31
-4.4015574455261230 4.1468310356140137 -2.8776590824127197 239 174 31
-4.5605220794677734 4.1672081947326660 -2.7809870243072510 239 174 31
-4.2780880928039551 4.0121040344238281 -3.0200471878051758 239 174 31
-4.2514538764953613 4.0152812004089355 -3.1260809898376465 239 174 31
-4.5771441459655762 4.0247774124145508 -3.1880061626434326 239 174 31
-4.5844469070434570 4.2434968948364258 -2.8811001777648926 239 174 31
-4.4700250625610352 4.1200823783874512 -3.0366225242614746 239 174 31
-4.4304914474487305 4.0534057617187500 -3.3265075683593750 239 174 31
-4.2381496429443359 4.0471029281616211 -3.1798233985900879 239 174 31
-4.5678005218505859 4.2689752578735352 -2.8860459327697754 239 174 31
-4.4936051368713379 4.0484647750854492 -3.3291163444519043 239 174 31
-4.3358144760131836 4.1980643272399902 -3.0517511367797852 239 174 31
-4.4673910140991211 4.2332630157470703 -3.3165042400360107 239 174 31
-4.5642981529235840 4.2235045433044434 -2.7253766059875488 239 174 31
-4.3637795448303223 4.2765746116638184 -3.0259275436401367 239 174 31
-4.5008091926574707 4.3094959259033203 -2.7624683380126953 239 174 31
-4.4589390754699707 4.1871929168701172 -3.1023404598236084 239 174 31
-4.4719042778015137 4.0226879119873047 -3.5318858623504639 239 174 31
-4.4405102729797363 4.1032991409301758 -3.2326073646545410 239 174 31
-4.6068906784057617 4.0515446662902832 -3.1398692131042480 239 174 31
-4.4876174926757813 4.0531029701232910 -3.5619769096374512 239 174 31
-4.5976891517639160 4.2538256645202637 -3.0091803073883057 239 174 31
-4.2816553115844727 4.2044739723205566 -3.2255632877349854 239 174 31
-4.2985787391662598 4.2236723899841309 -2.9972772598266602 239 174 31
-4.3943905830383301 4.0900936126708984 -3.3513057231903076 239 174 31
-4.2897648811340332 4.1932916641235352 -3.2250983715057373 239 174 31
-4.4792451858520508 4.1502623558044434 -2.6839566230773926 239 174 31
-4.5025987625122070 3.8489143848419189 -3.1695599555969238 239 174 31
-4.3227987289428711 3.9345371723175049 -2.9137115478515625 239 174 31
-4.6170449256896973 4.0080151557922363 -3.0482966899871826 239 174 31
-4.2374382019042969 4.2080845832824707 -3.0914204120635986 239 174 31
-4.3275904655456543 4.2364406585693359 -3.0455384254455566 239 174 31
-4.4114527702331543 4.3657999038696289 -2.9432246685028076 239 174 31
-4.4964714050292969 4.1803483963012695 -3.3023865222930908 239 174 31
-4.5553841590881348 4.0405468940734863 -3.2888548374176025 239 174 31
-4.5628190040588379 4.1688737869262695 -3.0456311702728271 239 174 31
-4.4594073295593262 4.1981277465820313 -2.9006018638610840 239 174 31
-4.2662429809570313 4.1391887664794922 -2.9606368541717529 239 174 31
-4.5036826133728027 4.0454516410827637 -2.8940107822418213 239 174 31
-4.6310915946960449 4.4005985260009766 -2.9878180027008057 239 174 31
-4.5062742233276367 4.0488171577453613 -3.4436275959014893 239 174 31
-4.5032129287719727 4.3192296028137207 -3.0526793003082275 239 174 31
-4.4082183837890625 4.3251228332519531 -2.9679956436157227 239 174 31
-4.4227585792541504 4.0040864944458008 -3.2366931438446045 239 174 31
-4.6027646064758301 4.2479023933410645 -3.0215504169464111 239 174 31
-4.6124610900878906 4.3302965164184570 -3.0171999931335449 239 174 31
-4.4279894828796387 4.2292776107788086 -3.3295199871063232 239 174 31
-4.4017577171325684 4.2127032279968262 -3.0328447818756104 239 174 31
-4.4151768684387207 4.2616996765136719 -2.9756460189819336 239 174 31
-4.5788588523864746 4.4544205665588379 -2.7224550247192383 239 174 31
-4.5903339385986328 4.2891788482666016 -2.9592390060424805 239 174 31
-4.4518928527832031 4.1746020317077637 -2.6294541358947754 239 174 31
-4.3375592231750488 4.3086380958557129 -3.3790347576141357 239 174 31
-4.2467904090881348 4.1943445205688477 -3.0538568496704102 239 174 31
-4.4015269279479980 3.9784884452819824 -3.1339972019195557 239 174 31
-4.6635546684265137 4.1327929496765137 -2.9897227287292480 239 174 31
-4.5341949462890625 4.3057246208190918 -2.8592970371246338 239 174 31
-4.3643598556518555 4.0286707878112793 -3.2242431640625000 239 174 31
-4.4596819877624512 4.2967700958251953 -3.0251376628875732 239 174 31
-4.5828070640563965 4.3955588340759277 -2.7198107242584229 239 174 31
-4.5186829566955566 4.1896591186523438 -3.0813875198364258 239 174 31
-4.5919771194458008 4.2992224693298340 -2.8150060176849365 239 174 31
-4.3132324218750000 4.1352915763854980 -3.2750840187072754 239 174 31
-4.5303120613098145 4.2617349624633789 -2.9416284561157227 239 174 31
-4.2623214721679688 4.0138883590698242 -2.8439054489135742 239 174 31
-3.9950461387634277 3.4646856784820557 -2.7700266838073730 239 174 31
-4.6402750015258789 4.2963786125183105 -2.9154689311981201 239 174 31
-4.3210778236389160 4.1836824417114258 -3.1168973445892334 239 174 31
-4.4571084976196289 4.2274990081787109 -2.9801256656646729 239 174 31
-4.5721049308776855 4.0858139991760254 -2.9077613353729248 239 174 31
-4.4423060417175293 4.0549006462097168 -3.2998235225677490 239 174 31
-4.3386783599853516 3.9337246417999268 -3.1445126533508301 239 174 31
-4.4992051124572754 4.2204408645629883 -2.9445562362670898 239 174 31
-4.4344148635864258 4.4309511184692383 -3.2342829704284668 239 174 31
-4.5228366851806641 3.8575246334075928 -2.9944405555725098 239 174 31
-4.6467657089233398 4.7111687660217285 -2.9722354412078857 239 174 31
-4.4972119331359863 4.2495317459106445 -2.9933702945709229 239 174 31
-4.3932409286499023 4.2717285156250000 -2.9987769126892090 239 174 31
-4.4549679756164551 4.2345027923583984 -2.9177336692810059 239 174 31
-4.5420093536376953 4.4271469116210938 -2.7042949199676514 239 174 31
-4.5431079864501953 4.2217912673950195 -2.9671642780303955 239 174 31
-4.6569156646728516 4.2915263175964355 -3.0627546310424805 239 174 31
-4.3114080429077148 3.8471508026123047 -3.1445856094360352 239 174 31
-4.4557189941406250 4.4241108894348145 -2.9452040195465088 239 174 31
-4.5269827842712402 4.2463250160217285 -2.9549369812011719 239 174 31
-4.3214192390441895 4.1084427833557129 -3.2259931564331055 239 174 31
-4.5211019515991211 4.3231744766235352 -2.6716363430023193 239 174 31
-4.4865350723266602 4.1540360450744629 -3.0970749855041504 239 174 31
-4.5020279884338379 4.4397644996643066 -2.9102785587310791 239 174 31
-4.3453392982482910 4.2487764358520508 -2.9631736278533936 239 174 31
-4.5996150970458984 4.0460791587829590 -3.2528247833251953 239 174 31
-4.3783550262451172 4.0622439384460449 -3.1748964786529541 239 174 31
-4.4927196502685547 4.0957412719726563 -3.3296391963958740 239 174 31
-4.5205330848693848 4.0458416938781738 -3.4393973350524902 239 174 31
-4.4911060333251953 4.0678639411926270 -3.2825660705566406 239 174 31
-4.4946155548095703 4.2825126647949219 -2.9478292465209961 239 174 31
-4.5581450462341309 4.1055707931518555 -2.9514486789703369 239 174 31
-4.4632048606872559 4.3299527168273926 -2.7388682365417480 239 174 31
-4.2468075752258301 3.9520423412322998 -2.8515272140502930 239 174 31
-4.4001336097717285 4.2579483985900879 -2.9324688911437988 239 174 31
-4.4207892417907715 4.0686039924621582 -3.3084809780120850 239 174 31
-4.2348208427429199 3.2110147476196289 -2.5032985210418701 239 174 31
-4.5077214241027832 4.3390269279479980 -2.7490782737731934 239 174 31
-4.5634298324584961 4.0513830184936523 -3.2938594818115234 239 174 31
-4.5176038742065430 4.1488771438598633 -3.1218631267547607 239 174 31
-4.3781976699829102 4.2754850387573242 -3.2003238201141357 239 174 31
-4.4460783004760742 4.2751445770263672 -3.1599359512329102 239 174 31
-4.3822207450866699 4.2447428703308105 -2.9488108158111572 239 174 31
-4.3804149627685547 4.2371501922607422 -2.9980943202972412 239 174 31
-4.5806236267089844 4.4040293693542480 -2.8111870288848877 239 174 31
-4.5825500488281250 4.3346285820007324 -2.6994879245758057 239 174 31
-4.2498846054077148 3.6520938873291016 -2.9871726036071777 239 174 31
-4.5948443412780762 4.0903081893920898 -3.1622295379638672 239 174 31
-4.4200177192687988 3.9966025352478027 -3.4142687320709229 239 174 31
-4.3361067771911621 4.1914348602294922 -2.9504301548004150 239 174 31
-4.4648642539978027 4.6621756553649902 -3.3674495220184326 239 174 31
-4.3598871231079102 4.0590529441833496 -2.7127954959869385 239 174 31
-4.5964865684509277 4.3995652198791504 -2.7721989154815674 239 174 31
-4.4531793594360352 4.2395300865173340 -2.8129708766937256 239 174 31
-4.4691495895385742 3.8545823097229004 -2.7305290699005127 239 174 31
-4.2564282417297363 4.1464328765869141 -3.1588320732116699 239 174 31
-4.2385272979736328 4.0272774696350098 -3.0740838050842285 239 174 31
-4.3969016075134277 4.1210441589355469 -2.8151297569274902 239 174 31
-4.4466152191162109 4.4960284233093262 -3.2812633514404297 239 174 31
-4.2402997016906738 3.0383083820343018 -2.6253278255462646 239 174 31
-4.2975659370422363 4.0830006599426270 -3.2885289192199707 239 174 31
-4.3969850540161133 4.2567834854125977 -3.0073792934417725 239 174 31
-4.5317101478576660 4.3626055717468262 -2.6825559139251709 239 174 31
-4.2701086997985840 4.1248598098754883 -3.1579883098602295 239 174 31
-4.3766403198242188 4.0515880584716797 -3.4085121154785156 239 174 31
-4.6274108886718750 4.2917256355285645 -2.9775879383087158 239 174 31
-4.5770406723022461 4.0855689048767090 -3.1937777996063232 239 174 31
-4.4240250587463379 4.0988039970397949 -3.0794296264648438 239 174 31
-4.5399432182312012 4.1418194770812988 -2.9846911430358887 239 174 31
-4.4085798263549805 4.1086559295654297 -3.4083888530731201 239 174 31
-4.4599933624267578 4.0185556411743164 -3.5224254131317139 239 174 31
-4.6218876838684082 4.0734558105468750 -3.2285749912261963 239 174 31
-4.2726478576660156 4.2314071655273438 -3.0527813434600830 239 174 31
-4.4820098876953125 3.9264957904815674 -2.9346194267272949 239 174 31
-4.3339185714721680 4.2300424575805664 -2.9863235950469971 239 174 31
-4.6275157928466797 4.0751857757568359 -3.2230424880981445 239 174 31
-4.6636390686035156 4.1599173545837402 -3.0187094211578369 239 174 31
-4.3981242179870605 4.1139464378356934 -3.2221114635467529 239 174 31
-4.2930293083190918 4.1069760322570801 -3.2423851490020752 239 174 31
-4.4400281906127930 4.0995898246765137 -3.2062973976135254 239 174 31
-4.5401387214660645 4.0380959510803223 -3.3968291282653809 239 174 31
-4.3572649955749512 4.0929260253906250 -3.2609641551971436 239 174 31
-4.5205693244934082 3.8801708221435547 -3.1766281127929688 239 174 31
-4.3825626373291016 4.2049798965454102 -3.0373585224151611 239 174 31
-4.3771009445190430 4.1228523254394531 -3.1931202411651611 239 174 31
-4.4958372116088867 4.0583314895629883 -3.3260662555694580 239 174 31
-4.5266256332397461 4.0198836326599121 -3.2952477931976318 239 174 31
-4.1043682098388672 2.6942045688629150 -2.3527479171752930 239 174 31
-4.3897023200988770 4.4129619598388672 -3.0427396297454834 239 174 31
-4.4824109077453613 4.3164525032043457 -2.7488739490509033 239 174 31
-4.6258769035339355 4.2551894187927246 -2.9855885505676270 239 174 31
-4.5110754966735840 4.1424131393432617 -3.1950166225433350 239 174 31
-4.2801313400268555 3.4834463596343994 -2.5553424358367920 239 174 31
-4.3603591918945313 4.0651125907897949 -3.3221189975738525 239 174 31
-4.2476577758789063 4.0963268280029297 -3.1182954311370850 239 174 31
-4.6031360626220703 4.1956048011779785 -3.1637909412384033 239 174 31
-4.4540071487426758 4.1819362640380859 -3.1008312702178955 239 174 31
-4.5351676940917969 4.0614323616027832 -3.2198679447174072 239 174 31
-4.5807781219482422 4.0707283020019531 -3.2098774909973145 239 174 31
-4.4096527099609375 4.0580129623413086 -3.2755517959594727 239 174 31
-4.4754920005798340 4.3055033683776855 -2.7892644405364990 239 174 31
-4.3646550178527832 4.2327504158020020 -3.0713822841644287 239 174 31
-4.5377993583679199 4.0287551879882813 -3.2866418361663818 239 174 31
-4.3288326263427734 4.0656495094299316 -3.2351284027099609 239 174 31
-4.6290459632873535 4.1773943901062012 -3.0374512672424316 239 174 31
-4.6112904548645020 4.2124972343444824 -3.0346932411193848 239 174 31
-4.5403642654418945 4.2332010269165039 -2.9764292240142822 239 174 31
-4.4515357017517090 4.1399888992309570 -3.2766203880310059 239 174 31
-4.5734457969665527 4.2272315025329590 -2.9118919372558594 239 174 31
-4.2513728141784668 4.1848549842834473 -3.1409077644348145 239 174 31
-4.3431820869445801 4.0504045486450195 -3.2431592941284180 239 174 31
-4.6386265754699707 4.1789207458496094 -3.1169128417968750 239 174 31
-4.4818220138549805 4.4850392341613770 -2.8848257064819336 239 174 31
-4.5788731575012207 4.3820376396179199 -3.4663994312286377 239 174 31
-4.2525687217712402 3.6441800594329834 -2.9680719375610352 239 174 31
-4.3948431015014648 4.0355238914489746 -3.2836968898773193 239 174 31
-4.5104236602783203 4.2383484840393066 -3.0243046283721924 239 174 31
-4.3924775123596191 4.1307864189147949 -3.2651004791259766 239 174 31
-4.5194149017333984 4.2266831398010254 -2.9552094936370850 239 174 31
-4.3511409759521484 4.1491804122924805 -2.8436095714569092 239 174 31
-4.4853396415710449 4.2494463920593262 -2.9973440170288086 239 174 31
-4.3524789810180664 4.0861101150512695 -3.3315134048461914 239 174 31
-4.3112468719482422 3.6522395610809326 -3.0067408084869385 239 174 31
-4.2521700859069824 4.1647071838378906 -3.1706509590148926 239 174 31
-4.6288948059082031 4.1225852966308594 -3.1470029354095459 239 174 31
-4.5607790946960449 4.1583795547485352 -2.8628704547882080 239 174 31
-4.3203353881835938 4.2204294204711914 -2.9921367168426514 239 174 31
-4.4641766548156738 4.0607790946960449 -3.2757956981658936 239 174 31
-4.5655937194824219 4.0945611000061035 -3.2262303829193115 239 174 31
-4.4663553237915039 4.1237635612487793 -3.2096750736236572 239 174 31
-4.2759199142456055 3.8778166770935059 -3.0401799678802490 239 174 31
-4.2995991706848145 4.1479701995849609 -3.0171830654144287 239 174 31
-4.4100947380065918 4.0618715286254883 -2.6271958351135254 239 174 31
-4.3512272834777832 4.0628571510314941 -3.2924177646636963 239 174 31
-4.4420609474182129 4.0270457267761230 -2.6285741329193115 239 174 31
-4.5962100028991699 4.1195797920227051 -3.1166534423828125 239 174 31
-4.4236121177673340 4.5330405235290527 -3.3127415180206299 239 174 31
-4.6454691886901855 4.1096653938293457 -3.1439111232757568 239 174 31
-4.5779166221618652 4.3765854835510254 -2.7061059474945068 239 174 31
-4.6000933647155762 4.0554924011230469 -3.2666661739349365 239 174 31
-4.4365997314453125 4.2332477569580078 -3.0001082420349121 239 174 31
-4.6491594314575195 4.1077861785888672 -3.2235023975372314 239 174 31
-4.3424100875854492 4.1770038604736328 -3.1817986965179443 239 174 31
-4.3848123550415039 4.0951323509216309 -2.6128122806549072 239 174 31
-4.5143575668334961 4.3869700431823730 -2.7523083686828613 239 174 31
-4.5343356132507324 4.2007198333740234 -3.0804178714752197 239 174 31
-4.6526169776916504 4.0934128761291504 -3.1891593933105469 239 174 31
-4.2457261085510254 3.8935835361480713 -2.8824126720428467 239 174 31
-4.4166440963745117 4.1111888885498047 -2.6284637451171875 239 174 31
-4.4874777793884277 4.2280011177062988 -3.0016806125640869 239 174 31
-4.4794511795043945 4.3834657669067383 -2.7558374404907227 239 174 31
-4.5571589469909668 4.2497158050537109 -2.9724047183990479 239 174 31
-4.3269953727722168 4.1007757186889648 -3.3156013488769531 239 174 31
-4.3867373466491699 4.2783694267272949 -2.9849805831909180 239 174 31
-4.3879947662353516 4.1215443611145020 -3.1997647285461426 239 174 31
-4.4941654205322266 4.4127588272094727 -2.6976282596588135 239 174 31
-4.5117502212524414 4.0989146232604980 -3.1904668807983398 239 174 31
-4.5335845947265625 4.1003227233886719 -3.1220035552978516 239 174 31
-4.3118691444396973 4.4420218467712402 -3.1287813186645508 239 174 31
-4.3992581367492676 4.2596869468688965 -2.9412915706634521 239 174 31
-4.3550291061401367 4.2828321456909180 -2.9623315334320068 239 174 31
-4.4679884910583496 4.2682480812072754 -3.3230757713317871 239 174 31
-4.4903917312622070 4.4935626983642578 -3.2924752235412598 239 174 31
-4.5055460929870605 4.3020625114440918 -3.1220879554748535 239 174 31
-4.5444421768188477 3.9046955108642578 -2.8434007167816162 239 174 31
-4.4509358406066895 4.1955761909484863 -2.8521525859832764 239 174 31
-4.2958850860595703 4.2466063499450684 -3.0601642131805420 239 174 31
-4.5466103553771973 4.0318212509155273 -3.3920204639434814 239 174 31
-4.5842747688293457 4.0518798828125000 -3.2790985107421875 239 174 31
-4.5456304550170898 3.9233438968658447 -3.0573742389678955 239 174 31
-4.5597543716430664 4.1504974365234375 -3.1380503177642822 239 174 31
-4.4662036895751953 4.2462906837463379 -2.9363601207733154 239 174 31
-4.3726911544799805 4.2564969062805176 -3.0135886669158936 239 174 31
-4.3683319091796875 4.0234375000000000 -3.2835435867309570 239 174 31
-4.5171737670898438 4.0330309867858887 -3.3110022544860840 239 174 31
-4.5288991928100586 4.0244598388671875 -3.2987966537475586 239 174 31
-4.5354213714599609 4.4087414741516113 -2.7056787014007568 239 174 31
-4.4330163002014160 4.1067566871643066 -3.1230723857879639 239 174 31
-4.4762787818908691 4.6753191947937012 -3.4217610359191895 239 174 31
-4.4209556579589844 4.0675439834594727 -3.3408920764923096 239 174 31
-4.5257143974304199 4.3110804557800293 -2.6737911701202393 239 174 31
-4.2786178588867188 3.4806256294250488 -2.5004758834838867 239 174 31
-4.4635429382324219 4.2114920616149902 -3.0800368785858154 239 174 31
-4.2862706184387207 4.3570914268493652 -3.1124463081359863 239 174 31
-4.5421576499938965 4.4293227195739746 -3.2090067863464355 239 174 31
-4.3837819099426270 4.0632104873657227 -3.3868196010589600 239 174 31
-4.3983569145202637 3.9920938014984131 -3.2783353328704834 239 174 31
-4.3751940727233887 4.0406007766723633 -3.3111588954925537 239 174 31
-4.4285435676574707 4.1374320983886719 -3.2796776294708252 239 174 31
-4.6030468940734863 4.1964054107666016 -2.9763112068176270 239 174 31
-4.5406088829040527 4.1461973190307617 -3.2269587516784668 239 174 31
-4.4862856864929199 4.1458506584167480 -3.0302693843841553 239 174 31
-4.4954543113708496 4.3564705848693848 -2.7747390270233154 239 174 31
-4.3617372512817383 4.6352391242980957 -3.4019148349761963 239 174 31
-4.6483550071716309 4.0609183311462402 -2.9699432849884033 239 174 31
-4.2095098495483398 3.7427105903625488 -2.7226343154907227 239 174 31
-4.2817335128784180 3.9296731948852539 -3.1113049983978271 239 174 31
-4.3265204429626465 4.3461055755615234 -3.0293874740600586 239 174 31
-4.3591413497924805 4.2576584815979004 -3.3386785984039307 239 174 31
-4.3453292846679688 4.3125576972961426 -3.3366916179656982 239 174 31
-4.5339531898498535 4.4135398864746094 -2.7628853321075439 239 174 31
-4.5668449401855469 4.2369556427001953 -3.3696463108062744 239 174 31
-4.4584603309631348 4.2207045555114746 -2.8340637683868408 239 174 31
-4.3803300857543945 4.0774064064025879 -2.7024402618408203 239 174 31
-4.5290756225585938 4.5387878417968750 -3.3176484107971191 239 174 31
-4.5622010231018066 4.0321340560913086 -3.2930345535278320 239 174 31
-4.6052169799804688 4.0547251701354980 -3.0925128459930420 239 174 31
-4.2972350120544434 4.1188898086547852 -3.3024337291717529 239 174 31
-4.5795397758483887 4.1772623062133789 -2.8166983127593994 239 174 31
-4.5049052238464355 4.1641731262207031 -3.1721861362457275 239 174 31
-4.3009881973266602 4.3302440643310547 -3.1373357772827148 239 174 31
-4.6506614685058594 4.4701910018920898 -2.9475367069244385 239 174 31
-4.6809501647949219 4.1582589149475098 -3.0515170097351074 239 174 31
-4.5469079017639160 4.2993102073669434 -2.9787619113922119 239 174 31
-4.3964910507202148 4.0916152000427246 -3.2776765823364258 239 174 31
-4.6265816688537598 4.1914100646972656 -3.0146694183349609 239 174 31
-4.5354905128479004 4.1737551689147949 -3.0814983844757080 239 174 31
-4.3424878120422363 4.1608366966247559 -3.0414326190948486 239 174 31
-4.4032039642333984 4.1849460601806641 -3.0405607223510742 239 174 31
-4.4981317520141602 4.1564168930053711 -3.1271092891693115 239 174 31
-4.3863430023193359 4.1592049598693848 -2.7184624671936035 239 174 31
-4.3831706047058105 4.2919030189514160 -3.2975444793701172 239 174 31
-4.5893511772155762 4.2702350616455078 -2.8159465789794922 239 174 31
-4.5210089683532715 4.0542311668395996 -3.1957957744598389 239 174 31
-4.6092381477355957 4.0823431015014648 -3.1489651203155518 239 174 31
-4.5133399963378906 3.8202934265136719 -2.9698531627655029 239 174 31
-4.5098896026611328 3.8148798942565918 -2.9986114501953125 239 174 31
-4.4534187316894531 4.2453503608703613 -3.0011389255523682 239 174 31
-4.5046982765197754 4.2043781280517578 -2.9878668785095215 239 174 31
-4.6072721481323242 4.3175182342529297 -2.7963492870330811 239 174 31
-4.4035019874572754 4.0406813621520996 -3.3530375957489014 239 174 31
-4.5820231437683105 4.2989268302917480 -2.7771430015563965 239 174 31
-4.2603435516357422 3.8457405567169189 -2.9503135681152344 239 174 31
-4.4869704246520996 4.1730685234069824 -3.0969920158386230 239 174 31
-4.6278352737426758 4.1185874938964844 -3.1337726116180420 239 174 31
-4.4913897514343262 4.2048559188842773 -3.0265662670135498 239 174 31
-4.5743956565856934 3.9886317253112793 -3.0700273513793945 239 174 31
-4.3169603347778320 4.1416659355163574 -3.0791468620300293 239 174 31
-4.2688016891479492 3.9677002429962158 -2.8576006889343262 239 174 31
-4.5811076164245605 4.1744446754455566 -3.0785105228424072 239 174 31
-4.5903925895690918 4.3482470512390137 -2.7596611976623535 239 174 31
-4.5346388816833496 4.2311868667602539 -3.0161006450653076 239 174 31
-4.3548593521118164 4.0714869499206543 -3.2571415901184082 239 174 31
-4.2798833847045898 4.1992597579956055 -3.0049126148223877 239 174 31
-4.5051994323730469 4.5753479003906250 -2.9974687099456787 239 174 31
-4.4804964065551758 4.0348129272460938 -3.2563555240631104 239 174 31
-4.6197133064270020 4.2560801506042480 -2.9162752628326416 239 174 31
-4.5104718208312988 4.2490310668945313 -2.9585886001586914 239 174 31
-4.3843545913696289 4.1055483818054199 -2.6357057094573975 239 174 31
-4.5362405776977539 4.0767793655395508 -3.2268774509429932 239 174 31
-4.6285505294799805 4.0588216781616211 -3.2138614654541016 239 174 31
-4.7195329666137695 4.3239541053771973 -3.2640960216522217 239 174 31
-4.4582910537719727 4.0197639465332031 -3.4775578975677490 239 174 31
-4.5356597900390625 4.0249967575073242 -3.2949812412261963 239 174 31
-4.3114480972290039 4.1880292892456055 -3.0961410999298096 239 174 31
-4.3889446258544922 4.2530012130737305 -2.8807790279388428 239 174 31
-4.5472607612609863 4.1867856979370117 -2.7181878089904785 239 174 31
-4.2723536491394043 4.0211663246154785 -3.1545739173889160 239 174 31
-4.3472046852111816 4.0997748374938965 -3.3373589515686035 239 174 31
-4.5745072364807129 4.1732559204101563 -3.0361998081207275 239 174 31
-4.4420270919799805 4.1848568916320801 -3.0594501495361328 239 174 31
