//X Y Z R G B
714
2.8866481781005859 1.2052969932556152 0.0081353262066841 255 176 0
2.9144759178161621 0.7186245322227478 -0.0994404554367065 255 176 0
2.5850369930267334 0.7284285426139832 1.0583652257919312 255 176 0
2.8914978504180908 1.2458180189132690 -0.2557694315910339 255 176 0
2.9476010799407959 1.2926154136657715 -0.2502197325229645 255 176 0
2.8695063591003418 0.9092518687248230 0.2069516479969025 255 176 0
2.9147231578826904 1.2759140729904175 -0.2274839431047440 255 176 0
1.4568843841552734 1.1386835575103760 0.2100705057382584 255 176 0
2.9723150730133057 1.6819720268249512 0.4830673635005951 255 176 0
2.8797874450683594 0.6800031065940857 0.2536845505237579 255 176 0
2.3207373619079590 0.2019563615322113 0.5495448112487793 255 176 0
2.8581273555755615 1.1855756044387817 -0.2752480506896973 255 176 0
2.9415366649627686 0.8974217176437378 0.4042530059814453 255 176 0
2.9376075267791748 1.3986796140670776 0.0529291406273842 255 176 0
2.9134581089019775 0.7362208962440491 1.1831887960433960 255 176 0
2.2060880661010742 0.6896505951881409 -0.0046708839945495 255 176 0
2.9612827301025391 0.9209544658660889 1.0627077817916870 255 176 0
2.5093476772308350 0.4681109786033630 0.2236074954271317 255 176 0
2.5041990280151367 1.4690934419631958 0.1427095085382462 255 176 0
3.0522050857543945 0.7472462058067322 -0.3115238547325134 255 176 0
2.8941502571105957 0.8836714029312134 0.2609250545501709 255 176 0
3.0219182968139648 1.2100027799606323 0.4076564610004425 255 176 0
2.9002485275268555 0.2044639736413956 0.0766718462109566 255 176 0
2.7194604873657227 0.6059731841087341 -0.3499984145164490 255 176 0
2.9946796894073486 1.1489627361297607 0.8955379724502563 255 176 0
3.0660917758941650 1.2716943025588989 0.4026594161987305 255 176 0
2.8533849716186523 1.0748271942138672 -0.0200291536748409 255 176 0
2.8827157020568848 0.9655517935752869 1.0049296617507935 255 176 0
2.9079327583312988 -0.0836142301559448 -0.7369026541709900 255 176 0
2.9644930362701416 0.9334338903427124 -0.5713095664978027 255 176 0
2.9180595874786377 0.5043375492095947 -0.6321870684623718 255 176 0
2.8599522113800049 1.1411136388778687 -0.0098076239228249 255 176 0
2.8820013999938965 1.1346467733383179 0.0803590714931488 255 176 0
2.9248943328857422 -0.2143331766128540 -0.0854989513754845 255 176 0
2.9766056537628174 0.0707297474145889 -0.8047630190849304 255 176 0
2.8897755146026611 0.5939134955406189 0.3352384269237518 255 176 0
2.9211075305938721 1.2495652437210083 0.1797000169754028 255 176 0
2.8481636047363281 0.2551426589488983 -0.1525766253471375 255 176 0
2.8636155128479004 0.7465723752975464 0.1944213509559631 255 176 0
2.9141957759857178 0.6637648344039917 0.1680627912282944 255 176 0
2.9122703075408936 0.4740121960639954 0.2041389644145966 255 176 0
2.6156277656555176 1.2649363279342651 0.6082957983016968 255 176 0
2.8759343624114990 0.9839170575141907 0.0613014064729214 255 176 0
2.8415248394012451 -0.1765559613704681 0.0350268520414829 255 176 0
3.1557283401489258 0.5611432194709778 0.3770662844181061 255 176 0
2.8983354568481445 1.0291129350662231 -0.5833621025085449 255 176 0
2.9014167785644531 0.5078929662704468 0.0782584026455879 255 176 0
3.0008852481842041 1.0986243486404419 0.0159042030572891 255 176 0
2.9050354957580566 1.2002602815628052 0.3133035004138947 255 176 0
2.8896615505218506 1.1878134012222290 -0.2184594273567200 255 176 0
2.7671306133270264 1.0654872655868530 0.7508395910263062 255 176 0
2.8960840702056885 1.6474248170852661 0.4635027945041656 255 176 0
2.8505287170410156 0.1749757379293442 0.0554874315857887 255 176 0
2.9061133861541748 0.5871106386184692 -0.3298048973083496 255 176 0
2.8965010643005371 0.4330303966999054 -0.1572078019380569 255 176 0
2.8965966701507568 0.4006581306457520 1.0110470056533813 255 176 0
2.9142506122589111 0.5991385579109192 -0.3854451477527618 255 176 0
2.9034676551818848 0.6252488493919373 -0.1593615412712097 255 176 0
2.8854036331176758 0.1503935158252716 -0.6422224640846252 255 176 0
2.9000997543334961 1.1257156133651733 -0.3062380850315094 255 176 0
2.9321193695068359 0.9354137182235718 -0.0302196089178324 255 176 0
2.8754484653472900 0.2130091786384583 -0.2515828907489777 255 176 0
2.9344930648803711 0.2171237766742706 0.0900329276919365 255 176 0
2.9171400070190430 0.4183539152145386 0.6151065826416016 255 176 0
2.8736910820007324 0.5311709642410278 0.5567492246627808 255 176 0
2.8946099281311035 0.9976766109466553 0.1463800072669983 255 176 0
2.9767336845397949 0.7579932212829590 0.9788882732391357 255 176 0
2.8930904865264893 0.3347963392734528 -0.2358465045690536 255 176 0
2.8881006240844727 -0.3968921005725861 -0.2998006641864777 255 176 0
2.8816266059875488 1.4325842857360840 0.1126344501972198 255 176 0
2.8737912178039551 0.9982055425643921 0.0789681971073151 255 176 0
3.0446655750274658 1.6131294965744019 0.7487662434577942 255 176 0
2.9863138198852539 0.8368337154388428 0.2398381978273392 255 176 0
2.7943925857543945 0.3502261638641357 0.8400486707687378 255 176 0
2.8295257091522217 0.8922039270401001 0.0599850602447987 255 176 0
2.9063334465026855 0.5384102463722229 -0.0658108294010162 255 176 0
2.9461803436279297 0.9336773753166199 0.0433625131845474 255 176 0
3.0286066532135010 0.9469335079193115 0.0992023572325706 255 176 0
2.8857710361480713 1.0293610095977783 0.1678862869739532 255 176 0
2.8694288730621338 0.9380337595939636 0.8970412015914917 255 176 0
2.8935885429382324 1.4074349403381348 -0.0077821742743254 255 176 0
2.8708760738372803 0.9035292267799377 0.9577668309211731 255 176 0
2.9189751148223877 0.6731610298156738 -0.2830425202846527 255 176 0
2.8359777927398682 0.4790923893451691 0.7117288708686829 255 176 0
2.8675830364227295 0.9843910932540894 -0.7144719958305359 255 176 0
2.8858342170715332 0.4199432432651520 0.1184522658586502 255 176 0
2.8754689693450928 1.1836283206939697 0.1918477565050125 255 176 0
2.8613522052764893 0.8744094967842102 -0.7690439820289612 255 176 0
2.9188718795776367 1.1721547842025757 0.5483267307281494 255 176 0
2.8650748729705811 0.2209207564592361 -0.7248575091362000 255 176 0
2.8735518455505371 1.1200361251831055 0.5174783468246460 255 176 0
2.8506581783294678 1.0433588027954102 -0.4813806712627411 255 176 0
2.8845024108886719 0.4070354104042053 1.1050099134445190 255 176 0
2.8957929611206055 1.2452187538146973 0.4159751534461975 255 176 0
2.8470311164855957 1.1845541000366211 -0.1997586190700531 255 176 0
2.8269641399383545 0.9748870730400085 0.6650143265724182 255 176 0
2.8875916004180908 1.2517552375793457 -0.1345731467008591 255 176 0
2.8873622417449951 0.4484878182411194 0.6723176240921021 255 176 0
2.8629119396209717 1.0334173440933228 0.3659751117229462 255 176 0
2.8942027091979980 1.0141992568969727 0.9153655171394348 255 176 0
2.8855137825012207 0.2956038117408752 0.0182222370058298 255 176 0
2.9446907043457031 1.3678864240646362 0.4801236093044281 255 176 0
3.0856056213378906 1.4079120159149170 0.1696923226118088 255 176 0
2.9011876583099365 1.3151559829711914 0.7040088176727295 255 176 0
2.7805671691894531 1.1134716272354126 0.2584435045719147 255 176 0
2.9257888793945313 1.1525144577026367 0.3438019156455994 255 176 0
2.8828728199005127 1.0157392024993896 0.4162657856941223 255 176 0
2.8826270103454590 0.2044130563735962 -0.0366500653326511 255 176 0
2.9700469970703125 0.7917858362197876 -0.1976732015609741 255 176 0
2.7115805149078369 0.2919265031814575 0.9178052544593811 255 176 0
2.9195489883422852 -0.5269089937210083 -0.4815346300601959 255 176 0
2.8742201328277588 1.0130044221878052 0.8129774332046509 255 176 0
2.8666949272155762 -0.0881891250610352 -0.7445786595344543 255 176 0
2.9023742675781250 0.3215519189834595 -0.1308450698852539 255 176 0
2.9030835628509521 0.1931641101837158 -0.9099531769752502 255 176 0
2.9213597774505615 0.5343846678733826 1.2625832557678223 255 176 0
2.8768525123596191 0.4684142172336578 1.0815610885620117 255 176 0
2.9114804267883301 0.1640208810567856 -0.9108778834342957 255 176 0
2.9251341819763184 0.2520667314529419 -0.8000499010086060 255 176 0
2.8868138790130615 -0.3026597797870636 -0.0761372819542885 255 176 0
2.8292706012725830 0.6269084215164185 -1.1538980007171631 255 176 0
2.9091048240661621 0.2225366979837418 -0.9155734181404114 255 176 0
2.8216750621795654 0.2783563435077667 0.8699681758880615 255 176 0
2.8747906684875488 1.2996294498443604 -0.1347133368253708 255 176 0
2.9035112857818604 0.5456082224845886 -0.3094413876533508 255 176 0
3.0692026615142822 0.5213654637336731 0.8489154577255249 255 176 0
2.8815271854400635 1.5280990600585938 0.3158736526966095 255 176 0
2.9429121017456055 0.5334514379501343 0.2331632375717163 255 176 0
2.9084498882293701 0.0359280630946159 -0.7469570040702820 255 176 0
2.8938951492309570 1.2377068996429443 0.0905542597174644 255 176 0
2.8847658634185791 0.3059636354446411 -0.4034595489501953 255 176 0
2.8587141036987305 0.8528031706809998 0.3786488473415375 255 176 0
2.8749821186065674 -0.0811736956238747 0.2830485105514526 255 176 0
2.8828408718109131 0.4910590052604675 0.6896527409553528 255 176 0
2.8963623046875000 1.3331633806228638 -0.0798527300357819 255 176 0
2.8771123886108398 0.0467674285173416 0.4196303188800812 255 176 0
2.9862875938415527 1.3824737071990967 -0.0878067389130592 255 176 0
2.8735525608062744 0.8951339125633240 -0.5964685082435608 255 176 0
2.9119148254394531 1.2617486715316772 0.0981746539473534 255 176 0
2.8504850864410400 0.2597657442092896 -0.4994864165782928 255 176 0
2.9099783897399902 1.1800959110260010 -0.1766334474086761 255 176 0
2.8702039718627930 1.2027158737182617 0.0441639050841331 255 176 0
2.9560883045196533 1.5406196117401123 0.2905547022819519 255 176 0
2.8727345466613770 1.5063182115554810 0.6400189399719238 255 176 0
2.8716070652008057 0.6160267591476440 1.2057027816772461 255 176 0
2.8885684013366699 0.5689906477928162 1.2433249950408936 255 176 0
2.8874342441558838 1.0542974472045898 0.9513539671897888 255 176 0
2.8957254886627197 -0.4319709837436676 -0.3259801864624023 255 176 0
2.8780283927917480 0.6322254538536072 0.1918770372867584 255 176 0
2.8646516799926758 0.6575606465339661 -0.5170054435729980 255 176 0
2.8206272125244141 1.1138887405395508 -0.1551145464181900 255 176 0
2.9881474971771240 0.8255321979522705 1.1688342094421387 255 176 0
2.8722684383392334 0.8507601618766785 -0.8246276974678040 255 176 0
2.7474746704101563 0.2608309984207153 -0.1034019663929939 255 176 0
2.8912687301635742 1.5309537649154663 0.1399145424365997 255 176 0
2.9080660343170166 1.2629401683807373 -0.2804195582866669 255 176 0
2.7750847339630127 0.2826614975929260 0.8682475090026855 255 176 0
2.8847820758819580 1.4199562072753906 0.0928636044263840 255 176 0
2.7217838764190674 0.8060986995697021 0.9382350444793701 255 176 0
2.8907012939453125 0.4235873520374298 -0.0700723752379417 255 176 0
2.6679384708404541 0.0821975916624069 0.3706569373607635 255 176 0
2.8932616710662842 1.1543420553207397 -0.3823402523994446 255 176 0
2.4755318164825439 1.3145364522933960 0.1348805576562881 255 176 0
2.9029977321624756 1.0991079807281494 0.8652107119560242 255 176 0
2.8938927650451660 1.1601270437240601 0.7670073509216309 255 176 0
2.8855292797088623 0.3454075157642365 0.3495593965053558 255 176 0
2.6805398464202881 0.4554019868373871 0.8869239091873169 255 176 0
3.0767142772674561 0.5933096408843994 0.5787032246589661 255 176 0
2.8718461990356445 0.8381114006042480 0.4645287990570068 255 176 0
2.9757702350616455 1.0487245321273804 0.6266265511512756 255 176 0
3.0326452255249023 1.6214894056320190 0.4289857745170593 255 176 0
2.8746488094329834 1.6290121078491211 0.5701073408126831 255 176 0
2.8696727752685547 1.1766818761825562 0.7868421673774719 255 176 0
2.8439116477966309 1.1729052066802979 0.7947963476181030 255 176 0
2.8220558166503906 1.1325097084045410 0.8402974605560303 255 176 0
2.9235703945159912 0.6742277145385742 1.2154359817504883 255 176 0
2.7821815013885498 0.7991657257080078 0.9284808039665222 255 176 0
2.7443864345550537 0.3804883658885956 1.1126798391342163 255 176 0
2.6943147182464600 1.1027107238769531 -0.3921546339988708 255 176 0
2.6690211296081543 0.6863648891448975 0.9781618118286133 255 176 0
2.5655415058135986 1.0585299730300903 0.7926688790321350 255 176 0
2.8841359615325928 0.9544895291328430 0.9110662341117859 255 176 0
2.6146991252899170 0.7511196136474609 0.9906886816024780 255 176 0
2.7936048507690430 0.7358452081680298 1.1083685159683228 255 176 0
2.9186334609985352 0.6809118390083313 1.2129338979721069 255 176 0
2.8671517372131348 0.7398916482925415 1.1462130546569824 255 176 0
2.9032480716705322 1.1778140068054199 0.8159132599830627 255 176 0
2.9046199321746826 1.0280529260635376 0.9372594356536865 255 176 0
2.9158494472503662 -0.1332122832536697 -0.6549316048622131 255 176 0
3.1009058952331543 0.9114152193069458 0.9189611077308655 255 176 0
2.9002027511596680 1.0483019351959229 0.8583067059516907 255 176 0
2.8199503421783447 0.9535065889358521 0.9502281546592712 255 176 0
2.8938820362091064 1.2424527406692505 0.8114460110664368 255 176 0
2.8852179050445557 1.0873315334320068 0.5887597203254700 255 176 0
2.8708169460296631 0.5150269269943237 1.1756846904754639 255 176 0
2.5365612506866455 1.4331002235412598 0.1295772939920425 255 176 0
3.0848729610443115 0.4148791134357452 0.9970520138740540 255 176 0
2.8967831134796143 0.2928438186645508 0.8892720341682434 255 176 0
2.8087806701660156 1.2826689481735229 0.3509268164634705 255 176 0
2.8712882995605469 0.3462634384632111 1.0001231431961060 255 176 0
2.8697292804718018 0.4715988039970398 1.0942847728729248 255 176 0
2.8849151134490967 1.1535867452621460 0.6877607107162476 255 176 0
2.8798427581787109 0.8766765594482422 0.9751625657081604 255 176 0
2.5861942768096924 1.3813472986221313 -0.0471699647605419 255 176 0
2.8763570785522461 0.4097403585910797 0.7326410412788391 255 176 0
2.8920545578002930 1.1060289144515991 0.8459979891777039 255 176 0
2.9071857929229736 1.0460435152053833 0.2254614233970642 255 176 0
2.8495624065399170 0.8176078796386719 0.5668072104454041 255 176 0
2.8886952400207520 0.3059017360210419 0.8602770566940308 255 176 0
2.9810140132904053 0.3722120225429535 0.7795618772506714 255 176 0
3.0303146839141846 0.9034960865974426 0.1090177595615387 255 176 0
2.8764376640319824 0.4943851828575134 0.6639860868453979 255 176 0
2.9633667469024658 1.1742320060729980 0.0565504692494869 255 176 0
2.9148216247558594 1.1697385311126709 0.1978056579828262 255 176 0
2.8869628906250000 1.0746431350708008 0.3366428017616272 255 176 0
2.8917701244354248 0.2616836726665497 0.7608684301376343 255 176 0
2.9641783237457275 0.9357942938804626 0.2940980195999146 255 176 0
3.0872604846954346 1.2156360149383545 0.4009404480457306 255 176 0
2.7972953319549561 0.8704293370246887 1.0110061168670654 255 176 0
2.8493578433990479 0.8683057427406311 1.1004036664962769 255 176 0
2.8880639076232910 0.4162351191043854 1.0444388389587402 255 176 0
2.8801696300506592 0.3887974619865417 0.9541825056076050 255 176 0
2.6270124912261963 1.1972292661666870 0.7554902434349060 255 176 0
2.8085448741912842 0.9611191749572754 0.9941610693931580 255 176 0
2.5063712596893311 1.6332392692565918 0.4204694628715515 255 176 0
2.7371594905853271 0.7128462195396423 1.1029202938079834 255 176 0
2.8495101928710938 1.1671683788299561 0.8672206401824951 255 176 0
2.8998312950134277 1.1413629055023193 0.6970959305763245 255 176 0
2.8795263767242432 0.9431619644165039 0.8297328948974609 255 176 0
2.8857910633087158 1.2585629224777222 0.7316765189170837 255 176 0
2.8682775497436523 0.3713129758834839 0.9529648423194885 255 176 0
2.8278338909149170 0.3858997225761414 1.1302992105484009 255 176 0
2.9506754875183105 0.7150411605834961 1.2103434801101685 255 176 0
2.6251740455627441 0.1537908315658569 0.7828395962715149 255 176 0
2.8288643360137939 0.3593839406967163 0.7029383778572083 255 176 0
1.9571783542633057 0.1328262388706207 0.9819177389144897 255 176 0
2.8193974494934082 0.2563478648662567 0.8189380168914795 255 176 0
2.7676758766174316 0.0326766036450863 0.5337752699851990 255 176 0
2.8209779262542725 0.3006802797317505 0.6814994812011719 255 176 0
2.8719701766967773 0.3831083774566650 1.0084875822067261 255 176 0
2.9642217159271240 1.0386641025543213 0.2623527050018311 255 176 0
2.8846025466918945 1.1673815250396729 -0.1575106680393219 255 176 0
3.0315191745758057 0.2319474220275879 -0.2587933242321014 255 176 0
2.8000311851501465 1.4208235740661621 0.0270052459090948 255 176 0
2.8663737773895264 0.4856079518795013 -0.0229921247810125 255 176 0
3.7964971065521240 1.2197583913803101 0.2216847389936447 255 176 0
2.9097452163696289 0.5154233574867249 0.3594828248023987 255 176 0
2.8764574527740479 0.5674428343772888 -0.9547216296195984 255 176 0
2.6676852703094482 0.4519132971763611 1.0125890970230103 255 176 0
2.8734788894653320 1.1216655969619751 0.9143131375312805 255 176 0
2.8891663551330566 0.9852519035339355 0.9478270411491394 255 176 0
2.8900263309478760 1.0886712074279785 0.8504047393798828 255 176 0
2.7835528850555420 0.3059069514274597 0.8937005400657654 255 176 0
2.8597252368927002 0.5711925029754639 1.2751716375350952 255 176 0
2.8707151412963867 0.4659113883972168 1.1526827812194824 255 176 0
2.7042062282562256 0.6907593011856079 1.0368053913116455 255 176 0
2.1519248485565186 -0.1712042242288589 0.3674314022064209 255 176 0
2.8458840847015381 0.8726134300231934 1.0342928171157837 255 176 0
2.9132227897644043 0.5000391602516174 1.1369570493698120 255 176 0
2.7607393264770508 0.2732970118522644 0.9085711836814880 255 176 0
2.8224799633026123 0.4415305852890015 1.0981668233871460 255 176 0
3.2944207191467285 0.7136015295982361 1.0670628547668457 255 176 0
2.8944346904754639 0.6131479144096375 1.2329064607620239 255 176 0
3.0618972778320313 0.6149673461914063 0.1787406653165817 255 176 0
2.8906109333038330 -0.0404658615589142 -0.7118199467658997 255 176 0
2.8463385105133057 1.0970215797424316 0.7196620106697083 255 176 0
3.0260610580444336 0.7036368846893311 1.2559599876403809 255 176 0
2.7785789966583252 0.9510386586189270 0.9133068919181824 255 176 0
2.7105293273925781 0.7547698020935059 1.0715689659118652 255 176 0
2.9627859592437744 0.8774985671043396 1.0978485345840454 255 176 0
2.7018015384674072 1.2205396890640259 0.7290224432945251 255 176 0
3.0208816528320313 1.0295401811599731 0.9947191476821899 255 176 0
2.8951156139373779 1.0127823352813721 0.9502623081207275 255 176 0
2.7305991649627686 0.8579555153846741 0.9612393975257874 255 176 0
2.8681313991546631 1.1015369892120361 0.8717752695083618 255 176 0
2.8879382610321045 1.0593259334564209 0.9286878705024719 255 176 0
2.8927552700042725 0.9933326244354248 0.9281067252159119 255 176 0
2.8919503688812256 0.9614277482032776 0.9720544219017029 255 176 0
2.9573450088500977 0.5843757987022400 1.2479014396667480 255 176 0
2.9131808280944824 0.7565379738807678 1.1474382877349854 255 176 0
2.7787003517150879 0.4481560885906219 0.9277132153511047 255 176 0
2.9037122726440430 0.5216743350028992 0.9571586847305298 255 176 0
2.8390479087829590 0.4568755924701691 1.0874994993209839 255 176 0
2.9649562835693359 0.4006305336952209 1.0799012184143066 255 176 0
2.7820796966552734 0.8275583386421204 0.9291234016418457 255 176 0
2.8851149082183838 0.5456731319427490 1.2305730581283569 255 176 0
3.2725303173065186 0.6484370827674866 1.2008346319198608 255 176 0
2.8792128562927246 0.3880872726440430 0.9864569306373596 255 176 0
3.0513792037963867 1.0510624647140503 0.9850795865058899 255 176 0
2.8934714794158936 0.5468391776084900 1.3019076585769653 255 176 0
2.8699033260345459 0.7643141150474548 1.1307969093322754 255 176 0
2.8867361545562744 0.8882452249526978 1.0855268239974976 255 176 0
2.8558897972106934 0.4314217865467072 0.9613847136497498 255 176 0
2.7962639331817627 0.7789170742034912 1.1138384342193604 255 176 0
2.8935279846191406 0.3194056749343872 1.0100059509277344 255 176 0
2.9044570922851563 0.8644872903823853 1.0625514984130859 255 176 0
3.2345290184020996 0.5690436363220215 1.2643426656723022 255 176 0
2.9654717445373535 0.7465324401855469 1.2277697324752808 255 176 0
2.8745133876800537 0.6151878237724304 1.2239496707916260 255 176 0
2.8701760768890381 0.3669328093528748 0.9687143564224243 255 176 0
2.9901576042175293 0.8922572731971741 1.0114616155624390 255 176 0
2.7321577072143555 0.4711076617240906 0.9052979946136475 255 176 0
3.1749153137207031 0.6288245916366577 1.2067079544067383 255 176 0
2.8472230434417725 0.6511134505271912 1.1941775083541870 255 176 0
2.9825165271759033 0.8130467534065247 1.1763081550598145 255 176 0
1.9222829341888428 0.0286829676479101 0.8687956929206848 255 176 0
2.7917470932006836 0.6097725629806519 1.1681659221649170 255 176 0
2.8876314163208008 0.4094845354557037 1.1333928108215332 255 176 0
2.9024026393890381 0.3714473247528076 1.0853147506713867 255 176 0
2.6807668209075928 0.6306369304656982 1.1262226104736328 255 176 0
2.8466305732727051 0.7421647906303406 1.1670182943344116 255 176 0
2.7946031093597412 0.8378870487213135 1.0729814767837524 255 176 0
2.9105486869812012 0.5442484617233276 1.2433116436004639 255 176 0
2.6947138309478760 0.4421551823616028 1.1547865867614746 255 176 0
2.8861410617828369 0.8025937080383301 1.0905548334121704 255 176 0
2.8717293739318848 0.4401523768901825 1.0581117868423462 255 176 0
2.8858149051666260 0.4476695954799652 1.0803120136260986 255 176 0
2.9071207046508789 0.8474069833755493 1.1026452779769897 255 176 0
2.8140792846679688 0.2920136451721191 0.9724684357643127 255 176 0
2.9148447513580322 0.3185499012470245 0.9963390827178955 255 176 0
2.6992714405059814 0.4337463080883026 0.9247390031814575 255 176 0
2.8555328845977783 0.3919458091259003 0.9535048604011536 255 176 0
2.8760223388671875 0.3869349062442780 0.9707748293876648 255 176 0
2.8435010910034180 0.6976354718208313 1.1425622701644897 255 176 0
2.9412014484405518 0.9194436669349670 1.0712846517562866 255 176 0
2.7813217639923096 0.5400422215461731 1.2286697626113892 255 176 0
2.9267003536224365 0.3288272023200989 0.9846118688583374 255 176 0
2.9712159633636475 0.4847183525562286 1.2164297103881836 255 176 0
2.8754508495330811 0.3929773569107056 1.1349134445190430 255 176 0
2.9085953235626221 0.9906073212623596 0.9962945580482483 255 176 0
2.7718317508697510 0.3996740579605103 1.1757566928863525 255 176 0
2.9762332439422607 0.9076315164566040 1.1016073226928711 255 176 0
2.8512110710144043 0.4564485847949982 0.9758664965629578 255 176 0
2.7462162971496582 0.3683378398418427 0.9587563872337341 255 176 0
2.8995463848114014 0.3748375475406647 1.0933308601379395 255 176 0
1.7140985727310181 -0.0477725528180599 0.8558343648910522 255 176 0
2.8329882621765137 0.6185865998268127 1.2410789728164673 255 176 0
2.8896946907043457 0.8000978827476501 1.0684670209884644 255 176 0
2.8965053558349609 0.9460000991821289 0.9955627322196960 255 176 0
2.8444306850433350 0.3554137051105499 0.9596578478813171 255 176 0
2.9362983703613281 0.5226272940635681 1.1964228153228760 255 176 0
2.8711075782775879 0.4479557871818542 1.0759160518646240 255 176 0
2.9353468418121338 0.8924324512481689 1.0343397855758667 255 176 0
2.9110844135284424 0.9931457638740540 1.0430340766906738 255 176 0
2.8915174007415771 0.9970084428787231 0.9314115643501282 255 176 0
2.8711745738983154 0.3779972493648529 0.9598947763442993 255 176 0
2.8938007354736328 0.8449505567550659 1.0326533317565918 255 176 0
2.8649024963378906 0.3706550300121307 0.9655988216400146 255 176 0
3.0015182495117188 0.9863380193710327 1.0408693552017212 255 176 0
2.6464595794677734 0.3611867725849152 1.0502754449844360 255 176 0
2.7005221843719482 0.1401230692863464 0.6001177430152893 255 176 0
2.7758460044860840 0.5831293463706970 1.1811965703964233 255 176 0
2.8195939064025879 0.7866843938827515 1.0911016464233398 255 176 0
3.2108042240142822 0.8402660489082336 1.2634974718093872 255 176 0
2.8545696735382080 0.3179471492767334 0.9066890478134155 255 176 0
2.8331468105316162 0.3871388733386993 1.0222244262695313 255 176 0
3.0088610649108887 0.4661298692226410 1.1734253168106079 255 176 0
3.0832774639129639 0.6444227099418640 1.3473911285400391 255 176 0
3.0226392745971680 0.4958693683147430 1.1507505178451538 255 176 0
2.9928758144378662 0.8785607218742371 1.1615118980407715 255 176 0
2.9262192249298096 0.4121846258640289 0.9879366755485535 255 176 0
2.9748861789703369 0.4598252177238464 1.1979385614395142 255 176 0
2.8517568111419678 0.7188372015953064 1.1284010410308838 255 176 0
2.8905436992645264 1.0566070079803467 0.9947704672813416 255 176 0
2.8851199150085449 0.4784942865371704 0.9788658618927002 255 176 0
4.1233010292053223 0.9513696432113647 1.2492145299911499 255 176 0
2.7546038627624512 0.6365088820457458 1.1353861093521118 255 176 0
2.7371542453765869 0.3267036378383636 0.9477472901344299 255 176 0
3.0019123554229736 0.7692595720291138 1.2293220758438110 255 176 0
2.9614098072052002 0.5110287666320801 1.1492195129394531 255 176 0
2.8062367439270020 0.6273462176322937 1.1799458265304565 255 176 0
2.7852139472961426 0.3443336486816406 1.0147776603698730 255 176 0
2.8189301490783691 0.9567818045616150 1.0017336606979370 255 176 0
2.8864119052886963 0.4247380495071411 1.0243453979492188 255 176 0
2.3629343509674072 0.5084341764450073 0.9996883869171143 255 176 0
2.9008443355560303 0.9338994026184082 0.9877727627754211 255 176 0
3.5440063476562500 0.6926171183586121 1.0930908918380737 255 176 0
2.8275334835052490 0.5496584773063660 1.2642208337783813 255 176 0
2.4936575889587402 0.2680442333221436 0.9812875986099243 255 176 0
2.6964337825775146 0.3892690241336823 0.9321730732917786 255 176 0
2.9152023792266846 0.3521745502948761 1.0007619857788086 255 176 0
2.8744783401489258 0.5565636754035950 1.2409776449203491 255 176 0
2.9087064266204834 0.5938255786895752 1.2615734338760376 255 176 0
2.9659812450408936 0.8832094073295593 0.9869713783264160 255 176 0
2.7605993747711182 0.6836028099060059 1.1243084669113159 255 176 0
2.8751008510589600 0.6529369950294495 1.2280272245407104 255 176 0
2.9135921001434326 1.0558332204818726 1.0041682720184326 255 176 0
2.8147749900817871 0.6124149560928345 1.2051146030426025 255 176 0
2.8130104541778564 0.7533239126205444 1.1102677583694458 255 176 0
2.9054579734802246 0.7768049836158752 1.1250938177108765 255 176 0
2.6740119457244873 0.3711062073707581 1.1689282655715942 255 176 0
2.9471364021301270 0.5926426053047180 1.3156208992004395 255 176 0
3.0221791267395020 0.9203513860702515 1.0541638135910034 255 176 0
2.4713802337646484 0.3771228790283203 1.0079543590545654 255 176 0
2.8851218223571777 0.9118454456329346 0.9776816368103027 255 176 0
4.6293292045593262 1.8691604137420654 1.2189967632293701 255 176 0
2.8416314125061035 0.5129403471946716 0.9108765125274658 255 176 0
2.8070111274719238 0.2841551601886749 0.6794065833091736 255 176 0
2.8496007919311523 0.7384078502655029 1.1539833545684814 255 176 0
2.3291180133819580 0.5454810857772827 0.9129822850227356 255 176 0
2.8877284526824951 0.4870741665363312 1.1831928491592407 255 176 0
2.9474885463714600 0.9759287834167480 0.9655336737632751 255 176 0
2.9158625602722168 0.6540071964263916 1.2065699100494385 255 176 0
2.8882827758789063 0.5863874554634094 1.2743546962738037 255 176 0
2.9455029964447021 0.6430112719535828 1.2379192113876343 255 176 0
2.9046132564544678 0.8428530693054199 1.1010740995407104 255 176 0
2.8067805767059326 0.6877638101577759 1.1491712331771851 255 176 0
2.8012995719909668 0.8794030547142029 1.0470714569091797 255 176 0
2.7088074684143066 0.3168082237243652 1.0012359619140625 255 176 0
2.8791677951812744 0.4851507842540741 1.1283645629882813 255 176 0
2.8305931091308594 0.9308645129203796 1.0366888046264648 255 176 0
2.8604404926300049 0.6156964302062988 1.2010757923126221 255 176 0
2.4602422714233398 0.2000247389078140 0.9318563342094421 255 176 0
2.8488149642944336 0.7240450978279114 1.1644570827484131 255 176 0
2.8751683235168457 1.0361984968185425 0.9703921079635620 255 176 0
7.3196053504943848 1.9730774164199829 0.3981562256813049 255 176 0
17.2971649169921875 6.4498600959777832 3.1262335777282715 255 176 0
2.7663664817810059 0.7947013974189758 1.0496306419372559 255 176 0
3.0214354991912842 0.9793127775192261 0.9657221436500549 255 176 0
2.8014650344848633 0.9422228932380676 0.9564869403839111 255 176 0
3.2729556560516357 1.2796189785003662 1.0137062072753906 255 176 0
2.8906509876251221 0.8129037618637085 1.1133532524108887 255 176 0
2.5882844924926758 0.3321489691734314 0.9293038845062256 255 176 0
3.1101162433624268 0.5365223884582520 1.2486644983291626 255 176 0
2.8683216571807861 0.7144915461540222 1.1452448368072510 255 176 0
2.6643717288970947 0.3271762132644653 1.0076752901077271 255 176 0
2.7734692096710205 0.6417899131774902 1.1579041481018066 255 176 0
2.8148214817047119 0.6811655163764954 1.1503036022186279 255 176 0
2.7636733055114746 0.4307328462600708 1.1555330753326416 255 176 0
2.9146654605865479 0.9425678849220276 0.9772479534149170 255 176 0
3.0244941711425781 0.4747400581836700 1.1130501031875610 255 176 0
2.8508205413818359 0.4098687469959259 1.0503655672073364 255 176 0
2.6700334548950195 0.2939353883266449 1.0611475706100464 255 176 0
2.8737783432006836 1.1162042617797852 0.8627622723579407 255 176 0
3.0020766258239746 0.6752115488052368 1.2932270765304565 255 176 0
3.0676429271697998 0.6610144972801208 1.1062197685241699 255 176 0
2.8869516849517822 0.7395877242088318 1.1886268854141235 255 176 0
2.9462695121765137 0.7980929017066956 0.4703657627105713 255 176 0
2.0569136142730713 0.2313652485609055 1.0549035072326660 255 176 0
2.8781776428222656 0.5211923122406006 1.1958813667297363 255 176 0
2.8627762794494629 0.7577493786811829 1.1324027776718140 255 176 0
2.8305280208587646 0.6502516269683838 1.1766275167465210 255 176 0
2.6871011257171631 0.3484756946563721 1.0239845514297485 255 176 0
2.7880046367645264 0.3801044225692749 1.0151576995849609 255 176 0
2.5686635971069336 0.2615768909454346 0.9519405961036682 255 176 0
2.9545624256134033 0.6607130169868469 1.2504061460494995 255 176 0
2.8059108257293701 0.4717510938644409 0.9557477235794067 255 176 0
2.8526558876037598 0.8384618759155273 1.0781058073043823 255 176 0
2.8220243453979492 0.4210070371627808 1.1262159347534180 255 176 0
2.9329638481140137 0.7398997545242310 1.1749074459075928 255 176 0
2.7680943012237549 0.3544935882091522 1.0454440116882324 255 176 0
2.8009350299835205 0.3308297991752625 1.0473791360855103 255 176 0
2.7409744262695313 0.8346889019012451 0.9835237860679626 255 176 0
2.8435859680175781 0.6020668745040894 1.2584859132766724 255 176 0
2.9049186706542969 0.8668596744537354 0.9486954808235168 255 176 0
2.2666282653808594 0.2351398468017578 1.1094888448715210 255 176 0
2.7425789833068848 0.4127566516399384 1.1051927804946899 255 176 0
2.9780693054199219 0.7214984297752380 1.2070549726486206 255 176 0
2.8992037773132324 0.8376492261886597 1.0231436491012573 255 176 0
2.8340544700622559 0.3686454892158508 1.0696624517440796 255 176 0
2.9013781547546387 0.8731692433357239 1.0716718435287476 255 176 0
3.3958468437194824 0.6094664931297302 1.1000078916549683 255 176 0
2.8702459335327148 0.4662877023220062 1.1829030513763428 255 176 0
2.8901517391204834 0.9734138846397400 0.9870303869247437 255 176 0
3.0629734992980957 1.0045473575592041 1.1130274534225464 255 176 0
2.8792021274566650 0.3356963992118835 0.9905502200126648 255 176 0
2.8908586502075195 0.8996312618255615 0.9349618554115295 255 176 0
2.8632173538208008 0.3708124458789825 0.9909071922302246 255 176 0
2.8756351470947266 0.3121071755886078 0.8272958397865295 255 176 0
2.6192309856414795 0.7408570647239685 1.0073777437210083 255 176 0
2.8894920349121094 0.9277762770652771 1.0158779621124268 255 176 0
2.8499057292938232 0.8904850482940674 0.9666340947151184 255 176 0
2.8974676132202148 0.6664416193962097 0.2740192115306854 255 176 0
2.8859302997589111 0.4382982254028320 0.7216777801513672 255 176 0
2.8806347846984863 0.4125261306762695 -0.0687307491898537 255 176 0
2.8724577426910400 0.3299468457698822 0.8819659352302551 255 176 0
2.8837738037109375 0.3671547770500183 0.7524892091751099 255 176 0
2.8887588977813721 0.8776749372482300 1.0369181632995605 255 176 0
2.8997771739959717 0.7206547856330872 0.3777714371681213 255 176 0
2.8965351581573486 0.3108837604522705 -0.3051072359085083 255 176 0
2.8800933361053467 1.0434156656265259 0.7683771252632141 255 176 0
2.8861474990844727 0.5575479865074158 0.5119228363037109 255 176 0
2.8957111835479736 1.4197053909301758 0.7260646224021912 255 176 0
2.8869111537933350 1.3327666521072388 -0.0596375018358231 255 176 0
2.8801293373107910 0.4767303168773651 1.1596655845642090 255 176 0
2.8931841850280762 1.1967275142669678 -0.2386860996484756 255 176 0
2.8991661071777344 0.2744235098361969 -0.9423228502273560 255 176 0
2.8894112110137939 0.7468394041061401 0.2196527272462845 255 176 0
2.8939466476440430 0.6160550713539124 0.1409163326025009 255 176 0
2.8835070133209229 0.3840033411979675 1.1162856817245483 255 176 0
2.5933179855346680 0.4121099412441254 1.1718442440032959 255 176 0
2.8772523403167725 0.2612359225749969 0.7129874825477600 255 176 0
2.8887553215026855 0.4713847637176514 1.1018122434616089 255 176 0
2.8799793720245361 0.9588708877563477 1.0208121538162231 255 176 0
2.8919205665588379 0.8449954390525818 1.0590583086013794 255 176 0
2.8888084888458252 0.5435378551483154 0.3311165869235992 255 176 0
2.9048602581024170 0.2151155918836594 0.0707029476761818 255 176 0
2.9112792015075684 0.1751736998558044 -0.6380507946014404 255 176 0
2.9209458827972412 0.6213233470916748 -1.1889150142669678 255 176 0
2.8904941082000732 1.2825169563293457 0.7518904209136963 255 176 0
2.8891601562500000 1.2803634405136108 0.0069514526985586 255 176 0
2.8827884197235107 0.2145886868238449 0.8296516537666321 255 176 0
2.8847029209136963 0.3657552003860474 0.6691895723342896 255 176 0
2.8998181819915771 1.1291499137878418 -0.1236248463392258 255 176 0
2.9215273857116699 0.7793910503387451 0.4514176845550537 255 176 0
2.9786710739135742 0.9891807436943054 0.7869000434875488 255 176 0
2.8872694969177246 0.2230841517448425 0.0552242994308472 255 176 0
2.8736186027526855 0.2606690227985382 0.1134446859359741 255 176 0
2.8982517719268799 0.5104134082794189 0.6301292777061462 255 176 0
2.8832054138183594 -0.3782002627849579 -0.2717317342758179 255 176 0
2.8714473247528076 0.2416065037250519 0.7392387986183167 255 176 0
2.9021914005279541 0.8405508995056152 0.0454131439328194 255 176 0
2.8988716602325439 0.7267135381698608 0.1111004129052162 255 176 0
2.8639233112335205 1.4695333242416382 0.1626265347003937 255 176 0
2.8866696357727051 1.1814824342727661 0.1869296133518219 255 176 0
2.9549961090087891 0.6406939029693604 0.3693056702613831 255 176 0
2.8848426342010498 1.0633939504623413 0.9113433957099915 255 176 0
2.9393401145935059 1.0880649089813232 0.7445015311241150 255 176 0
2.9038333892822266 1.1420398950576782 0.0079973405227065 255 176 0
2.8714315891265869 0.6867022514343262 0.1672037541866302 255 176 0
2.9053528308868408 0.5752580761909485 -0.3672388195991516 255 176 0
2.8831539154052734 1.6036843061447144 0.3137814402580261 255 176 0
2.8400039672851563 0.4654086530208588 1.1478092670440674 255 176 0
2.9224588871002197 1.6425139904022217 0.4379743933677673 255 176 0
2.9005892276763916 -0.1032485514879227 -0.7493427395820618 255 176 0
2.9037804603576660 0.5378640294075012 0.2358498573303223 255 176 0
2.9438965320587158 1.7155435085296631 0.5803180932998657 255 176 0
2.9015173912048340 0.7520076036453247 0.2106958031654358 255 176 0
2.8971624374389648 0.5438716411590576 0.3368939161300659 255 176 0
2.8884758949279785 0.5289049744606018 0.3035481870174408 255 176 0
2.8745186328887939 0.3416993916034698 0.9004324674606323 255 176 0
2.7771358489990234 0.4633072316646576 0.9209806919097900 255 176 0
2.8750355243682861 0.4535488784313202 1.0831977128982544 255 176 0
2.8787765502929688 0.4224767684936523 1.0588059425354004 255 176 0
3.0022966861724854 0.7525464892387390 1.2167712450027466 255 176 0
2.9249172210693359 0.8059000968933105 1.1365494728088379 255 176 0
2.9436075687408447 0.8190034031867981 1.1695669889450073 255 176 0
3.1591217517852783 0.9636101722717285 0.1970545351505280 255 176 0
2.8997762203216553 0.9149836897850037 0.9953222274780273 255 176 0
2.8472919464111328 0.8467280268669128 1.0804069042205811 255 176 0
2.9827160835266113 0.8389905691146851 1.0783609151840210 255 176 0
2.8797266483306885 0.4338852167129517 1.0751687288284302 255 176 0
2.8584923744201660 0.5907004475593567 1.2187755107879639 255 176 0
2.8792631626129150 0.7361576557159424 1.1764907836914063 255 176 0
2.6785714626312256 0.8379902243614197 0.9898537993431091 255 176 0
2.8949980735778809 0.6887512207031250 1.1750520467758179 255 176 0
2.8196008205413818 0.7128984332084656 1.1348121166229248 255 176 0
2.9442453384399414 0.8652061223983765 1.1380170583724976 255 176 0
2.8317346572875977 0.8762516975402832 0.9963244199752808 255 176 0
2.8837568759918213 0.6240103840827942 1.2127177715301514 255 176 0
2.8848979473114014 0.5161636471748352 1.1805242300033569 255 176 0
2.9449517726898193 0.6741830706596375 0.1894091665744781 255 176 0
2.8572766780853271 0.7391530871391296 1.1254726648330688 255 176 0
2.8040843009948730 0.9249213933944702 1.0279849767684937 255 176 0
3.0786776542663574 0.5359637141227722 1.1142731904983521 255 176 0
2.8917531967163086 0.5221984386444092 1.2199945449829102 255 176 0
2.6770727634429932 0.4225863814353943 0.9402086734771729 255 176 0
2.8207035064697266 0.6014170646667480 1.2313213348388672 255 176 0
2.8982651233673096 0.5090069770812988 1.2399823665618896 255 176 0
2.8325290679931641 0.3451735973358154 1.0799307823181152 255 176 0
2.8852968215942383 0.6238843798637390 1.2317116260528564 255 176 0
2.8956587314605713 0.9465273022651672 0.9827731251716614 255 176 0
2.8745336532592773 0.7998989224433899 1.0930343866348267 255 176 0
2.8933179378509521 0.8994714617729187 0.9992142319679260 255 176 0
2.8877837657928467 0.8719297051429749 0.9926126599311829 255 176 0
2.9031078815460205 0.9695684909820557 0.9501716494560242 255 176 0
2.7352392673492432 0.3870883882045746 1.0555866956710815 255 176 0
2.8952753543853760 0.5398584604263306 1.2895300388336182 255 176 0
6.2068176269531250 2.5027537345886230 1.5220884084701538 255 176 0
3.0024859905242920 0.7924086451530457 1.2013921737670898 255 176 0
2.9311738014221191 0.5939764380455017 1.2847520112991333 255 176 0
2.3183672428131104 0.2104191631078720 1.0586963891983032 255 176 0
2.9325022697448730 0.6139555573463440 1.2520451545715332 255 176 0
2.7826209068298340 0.5296358466148376 1.2560913562774658 255 176 0
2.8687989711761475 0.3985266983509064 1.1441063880920410 255 176 0
2.8923614025115967 0.6406717300415039 1.2232278585433960 255 176 0
2.8877043724060059 0.9266232252120972 1.0754754543304443 255 176 0
2.8087644577026367 0.4090448319911957 1.1061931848526001 255 176 0
2.8993268013000488 0.9419898986816406 0.9863351583480835 255 176 0
2.8867654800415039 0.9272947311401367 1.0457624197006226 255 176 0
2.8244137763977051 0.6660858988761902 1.1535974740982056 255 176 0
2.8977737426757813 1.6561250686645508 0.3847777843475342 255 176 0
2.2737333774566650 0.5193709135055542 0.9625850915908813 255 176 0
2.8511765003204346 0.5428321957588196 1.2933106422424316 255 176 0
2.8251986503601074 0.8008887767791748 1.0816701650619507 255 176 0
2.5796458721160889 0.7287383675575256 0.9733414053916931 255 176 0
2.8959438800811768 0.4158697426319122 1.0809537172317505 255 176 0
2.9427533149719238 0.5702352523803711 1.2487773895263672 255 176 0
2.8899264335632324 0.8681785464286804 1.0997358560562134 255 176 0
2.8822574615478516 0.9837610721588135 0.8325050473213196 255 176 0
2.8896038532257080 0.5343886613845825 1.2533221244812012 255 176 0
2.8747074604034424 0.8191248178482056 1.0026078224182129 255 176 0
2.9044206142425537 0.7880516052246094 1.1190123558044434 255 176 0
2.8131830692291260 0.5700538158416748 1.2334756851196289 255 176 0
2.8723495006561279 0.4158146083354950 1.0146828889846802 255 176 0
2.3583600521087646 0.2789399325847626 1.1254218816757202 255 176 0
2.9384014606475830 0.7518709301948547 1.1901626586914063 255 176 0
2.8749563694000244 0.8653348088264465 1.0811088085174561 255 176 0
2.8317382335662842 0.6242051720619202 1.1848274469375610 255 176 0
2.8318665027618408 0.8074944615364075 0.2803437113761902 255 176 0
2.8983221054077148 0.6636723279953003 1.2276515960693359 255 176 0
2.9046635627746582 0.7436035275459290 1.1445102691650391 255 176 0
2.8822975158691406 0.4218618571758270 1.0717774629592896 255 176 0
2.9280550479888916 0.6951403021812439 1.2350953817367554 255 176 0
2.7844791412353516 0.7718199491500854 1.0852195024490356 255 176 0
2.8219733238220215 0.6948714852333069 1.1693010330200195 255 176 0
2.8958799839019775 0.4706729352474213 1.1482868194580078 255 176 0
2.8662731647491455 0.5822516679763794 1.2286950349807739 255 176 0
2.8070125579833984 0.6312927007675171 1.1692689657211304 255 176 0
2.8148458003997803 0.3671133518218994 1.0409750938415527 255 176 0
2.9681105613708496 0.6672738194465637 1.2322416305541992 255 176 0
3.0067973136901855 0.5521435141563416 0.9832535982131958 255 176 0
2.8826756477355957 0.5024401545524597 1.2075557708740234 255 176 0
2.5590057373046875 0.3680567145347595 1.1061992645263672 255 176 0
2.7982358932495117 0.4557708501815796 1.1903018951416016 255 176 0
2.8552882671356201 0.6950572729110718 1.1626219749450684 255 176 0
2.8741986751556396 0.4409433603286743 0.9555830359458923 255 176 0
2.8644344806671143 0.8225518465042114 1.0810104608535767 255 176 0
2.8761801719665527 0.6576994657516479 1.1878359317779541 255 176 0
2.8280684947967529 0.7655476331710815 1.1224126815795898 255 176 0
2.8869073390960693 0.4998450577259064 1.2020850181579590 255 176 0
2.8773226737976074 0.4390433132648468 1.0854127407073975 255 176 0
2.6512022018432617 0.7380483746528625 1.0706012248992920 255 176 0
2.8736007213592529 0.5662341117858887 1.2498614788055420 255 176 0
2.4818336963653564 1.4506212472915649 0.2481801509857178 255 176 0
2.9162707328796387 0.6070562005043030 1.2855399847030640 255 176 0
2.9922056198120117 0.4446428716182709 1.1500896215438843 255 176 0
2.8524019718170166 0.3020297586917877 0.9043799042701721 255 176 0
3.2669391632080078 0.5098839402198792 1.0027642250061035 255 176 0
2.9088730812072754 0.9311949610710144 1.0198099613189697 255 176 0
2.8263664245605469 0.3341716825962067 0.9733810424804688 255 176 0
2.8896486759185791 0.4486157298088074 1.0736722946166992 255 176 0
2.4327464103698730 1.4549484252929688 0.5053833723068237 255 176 0
2.8588261604309082 0.4231134951114655 1.1668456792831421 255 176 0
2.9673712253570557 0.7707284092903137 1.1817804574966431 255 176 0
2.6251738071441650 0.3361673355102539 1.0259336233139038 255 176 0
2.7717895507812500 0.3644300401210785 0.9992208480834961 255 176 0
3.0063097476959229 0.8769112825393677 1.1095438003540039 255 176 0
3.1611754894256592 0.8192261457443237 0.6071555018424988 255 176 0
2.9619660377502441 0.4037672877311707 1.1159179210662842 255 176 0
2.8602492809295654 0.3626483380794525 0.9420466423034668 255 176 0
2.9037919044494629 1.5781279802322388 0.2885909378528595 255 176 0
3.0151033401489258 0.5759202241897583 1.2924255132675171 255 176 0
2.8623549938201904 0.3460806608200073 0.9746035337448120 255 176 0
3.0370838642120361 0.3878570497035980 0.8983842730522156 255 176 0
2.9224126338958740 0.3401258587837219 0.8908643722534180 255 176 0
2.8920309543609619 0.9044401049613953 1.0115678310394287 255 176 0
2.8467254638671875 0.8199642896652222 1.1055172681808472 255 176 0
2.8979279994964600 0.8767025470733643 1.0090323686599731 255 176 0
2.8726286888122559 1.0219360589981079 -0.0474437139928341 255 176 0
2.9111359119415283 0.8821284770965576 1.1078974008560181 255 176 0
2.8710219860076904 0.4073395133018494 1.0522705316543579 255 176 0
2.8141257762908936 0.4317025542259216 0.9422116875648499 255 176 0
1.9600349664688110 0.4381462931632996 0.6590583324432373 255 176 0
2.7500801086425781 0.4764722287654877 0.9368441104888916 255 176 0
2.9020307064056396 0.4515578448772430 1.1100828647613525 255 176 0
2.8245899677276611 0.8527365922927856 0.3606126010417938 255 176 0
2.7427911758422852 0.7491557598114014 1.0942022800445557 255 176 0
2.9163467884063721 0.8468875885009766 1.0956289768218994 255 176 0
2.8137462139129639 0.3443683683872223 1.0030339956283569 255 176 0
3.2002174854278564 0.5768156051635742 1.0897721052169800 255 176 0
2.7524135112762451 0.3034272193908691 1.0252820253372192 255 176 0
2.5837640762329102 0.3829398453235626 0.9431953430175781 255 176 0
2.9004423618316650 0.4666014313697815 1.1373118162155151 255 176 0
3.1357834339141846 0.4818494319915771 0.9568001627922058 255 176 0
2.8087182044982910 0.3027131259441376 0.8654098510742188 255 176 0
2.8874263763427734 0.5005237460136414 1.1887537240982056 255 176 0
2.9361414909362793 0.6859762072563171 0.1665334254503250 255 176 0
2.8646028041839600 0.3993556797504425 1.0480210781097412 255 176 0
2.8825204372406006 0.3543819785118103 0.9297378659248352 255 176 0
3.0843954086303711 1.1094908714294434 0.9993690848350525 255 176 0
3.0456736087799072 0.3611870110034943 1.0210698843002319 255 176 0
2.0972626209259033 0.3759435713291168 1.0014824867248535 255 176 0
3.0378565788269043 0.8829966783523560 1.0839080810546875 255 176 0
2.7743542194366455 0.8570429682731628 1.0537049770355225 255 176 0
2.8687195777893066 0.4800231754779816 1.1342334747314453 255 176 0
2.8772027492523193 0.8459801673889160 1.1053259372711182 255 176 0
2.9470498561859131 0.3467735052108765 1.0154399871826172 255 176 0
2.8667426109313965 0.5046656131744385 1.2035918235778809 255 176 0
1.9739521741867065 1.0694917440414429 0.5060989856719971 255 176 0
2.8571724891662598 0.7971863746643066 1.1027123928070068 255 176 0
2.8866395950317383 0.5930472612380981 0.5507395863533020 255 176 0
2.9093492031097412 0.8350502848625183 -0.6093598604202271 255 176 0
3.5744066238403320 0.6364402770996094 1.1889928579330444 255 176 0
2.5773401260375977 0.6036428809165955 1.0790116786956787 255 176 0
3.0874171257019043 0.5005373358726501 1.1009405851364136 255 176 0
2.9024307727813721 0.2229675650596619 -0.4547042548656464 255 176 0
2.7440569400787354 0.3969636857509613 0.9818049073219299 255 176 0
2.9089117050170898 0.2667359411716461 -0.8734901547431946 255 176 0
2.3546531200408936 0.2635784745216370 1.0969367027282715 255 176 0
2.8930625915527344 1.0577501058578491 -0.5108579993247986 255 176 0
2.9091765880584717 0.4981735944747925 1.1890177726745605 255 176 0
2.8914740085601807 0.8207695484161377 0.9893857240676880 255 176 0
3.0396046638488770 0.5477383732795715 0.2503216266632080 255 176 0
2.8714685440063477 0.6677725911140442 1.1886813640594482 255 176 0
2.9284033775329590 0.7871047854423523 1.1670596599578857 255 176 0
2.8991501331329346 0.3240095376968384 0.9939533472061157 255 176 0
2.8804152011871338 0.2887827455997467 0.9586507081985474 255 176 0
2.9388043880462646 0.4248490631580353 1.1566179990768433 255 176 0
2.7856857776641846 0.3559822440147400 0.9656442999839783 255 176 0
3.2039334774017334 0.4983255565166473 0.9903005957603455 255 176 0
2.9122388362884521 0.5110225081443787 1.1758024692535400 255 176 0
2.8355224132537842 0.7191363573074341 1.1192506551742554 255 176 0
3.0213780403137207 0.6884479522705078 1.2429571151733398 255 176 0
1.9973578453063965 0.1065771430730820 0.9456234574317932 255 176 0
2.8133010864257813 0.4132339358329773 1.1721198558807373 255 176 0
2.8976686000823975 0.2753823995590210 0.9313834309577942 255 176 0
3.3220958709716797 0.9174400568008423 1.2883641719818115 255 176 0
2.8007407188415527 0.5103604793548584 1.2320656776428223 255 176 0
2.8674595355987549 0.3307614028453827 0.8726226091384888 255 176 0
1.7701307535171509 0.0422054193913937 0.9340111613273621 255 176 0
2.9314975738525391 0.3108966946601868 0.8297418355941772 255 176 0
2.8958973884582520 0.2738604247570038 0.9106135964393616 255 176 0
2.9509842395782471 0.4245232343673706 0.7491995692253113 255 176 0
