//X Y Z R G B Original_cloud_index
622
0.2581096887588501 -3.2458460330963135 4.1229124069213867 0 255 255 0.000000
0.8556506037712097 -3.2502300739288330 4.1789140701293945 0 255 255 0.000000
0.1434376686811447 -3.2293884754180908 4.1628160476684570 0 255 255 0.000000
0.8401387929916382 -3.2330305576324463 4.1432809829711914 0 255 255 0.000000
0.4472608268260956 -3.1904525756835938 4.0649285316467285 0 255 255 0.000000
0.9018520116806030 -3.0918643474578857 4.1258749961853027 0 255 255 0.000000
0.1831290274858475 -4.1077265739440918 4.9483323097229004 0 255 255 0.000000
0.2550500929355621 -3.1644303798675537 4.0990076065063477 0 255 255 0.000000
0.9646414518356323 -3.0490674972534180 3.9818408489227295 0 255 255 0.000000
0.8511309623718262 -3.1901123523712158 4.1384310722351074 0 255 255 0.000000
0.9061919450759888 -3.1621155738830566 4.0485677719116211 0 255 255 0.000000
0.1602464467287064 -3.6626777648925781 4.3121399879455566 0 255 255 0.000000
0.7065533995628357 -3.0186591148376465 4.1416440010070801 0 255 255 0.000000
0.9396711587905884 -3.0676040649414063 4.1193742752075195 0 255 255 0.000000
0.1903423070907593 -3.4371604919433594 4.3244218826293945 0 255 255 0.000000
0.9745412468910217 -3.1246414184570313 4.1744766235351563 0 255 255 0.000000
0.1094364896416664 -3.3902869224548340 4.2461786270141602 0 255 255 0.000000
0.9859431385993958 -3.3372869491577148 4.3655157089233398 0 255 255 0.000000
0.4485099017620087 -2.7705347537994385 3.6400418281555176 0 255 255 0.000000
0.1777411997318268 -4.0413994789123535 4.8647108078002930 0 255 255 0.000000
0.9217565655708313 -3.4530746936798096 4.2765092849731445 0 255 255 0.000000
0.0601140186190605 -3.7243909835815430 4.4772748947143555 0 255 255 0.000000
0.2212540060281754 -3.2712018489837646 4.1405043601989746 0 255 255 0.000000
0.1331186294555664 -3.2729566097259521 4.1563916206359863 0 255 255 0.000000
0.1350226551294327 -3.8199810981750488 4.5287985801696777 0 255 255 0.000000
0.3080784976482391 -3.0652661323547363 4.0359520912170410 0 255 255 0.000000
0.9077106714248657 -3.6027703285217285 4.5799403190612793 0 255 255 0.000000
0.0477576218545437 -4.1182346343994141 4.8768329620361328 0 255 255 0.000000
1.0129923820495605 -3.1414029598236084 4.2104954719543457 0 255 255 0.000000
0.1315085738897324 -3.3968391418457031 4.2351965904235840 0 255 255 0.000000
0.2713023126125336 -3.1906008720397949 4.1099548339843750 0 255 255 0.000000
0.2611047625541687 -3.5165040493011475 4.2774553298950195 0 255 255 0.000000
0.9670734405517578 -3.0983152389526367 4.1379246711730957 0 255 255 0.000000
0.3101331591606140 -3.0734724998474121 4.0403537750244141 0 255 255 0.000000
0.3099993467330933 -3.0894951820373535 4.0445117950439453 0 255 255 0.000000
0.8609886765480042 -3.4897906780242920 4.1696262359619141 0 255 255 0.000000
0.8883216977119446 -3.0463910102844238 4.1399173736572266 0 255 255 0.000000
0.8937953710556030 -3.0659971237182617 4.1296195983886719 0 255 255 0.000000
0.2142243385314941 -3.7654922008514404 4.5379204750061035 0 255 255 0.000000
0.2321452200412750 -3.2342035770416260 4.0966682434082031 0 255 255 0.000000
0.8390690684318542 -3.5972557067871094 4.1526675224304199 0 255 255 0.000000
0.7250193953514099 -3.0529110431671143 4.1810708045959473 0 255 255 0.000000
0.9267771840095520 -3.4692764282226563 4.2901811599731445 0 255 255 0.000000
0.1919877380132675 -2.8583221435546875 3.6554431915283203 0 255 255 0.000000
0.9166272878646851 -3.2102982997894287 4.2398214340209961 0 255 255 0.000000
0.8893196582794189 -3.4884276390075684 4.1686291694641113 0 255 255 0.000000
0.9580194950103760 -3.4914541244506836 4.2709221839904785 0 255 255 0.000000
0.3831115961074829 -3.4085192680358887 4.2498135566711426 0 255 255 0.000000
0.7799695730209351 -4.1770496368408203 4.9280228614807129 0 255 255 0.000000
0.8540158867835999 -3.4054143428802490 4.1450719833374023 0 255 255 0.000000
0.8996474146842957 -3.0724802017211914 4.1013350486755371 0 255 255 0.000000
0.2082799673080444 -3.4774019718170166 4.2710461616516113 0 255 255 0.000000
0.1962618380784988 -3.7846763134002686 4.5145826339721680 0 255 255 0.000000
0.1905830502510071 -4.1419405937194824 4.8819303512573242 0 255 255 0.000000
0.1557825058698654 -4.0040888786315918 4.8045735359191895 0 255 255 0.000000
0.9420756697654724 -3.1483902931213379 4.2242174148559570 0 255 255 0.000000
0.9839986562728882 -3.2622714042663574 4.3389000892639160 0 255 255 0.000000
0.4505606591701508 -2.9009807109832764 3.9378595352172852 0 255 255 0.000000
0.8372960090637207 -3.9454009532928467 4.9347620010375977 0 255 255 0.000000
0.2827594280242920 -3.0666408538818359 4.1050271987915039 0 255 255 0.000000
0.0365771651268005 -3.9631755352020264 4.7416400909423828 0 255 255 0.000000
0.6708865761756897 -3.1331064701080322 4.1099543571472168 0 255 255 0.000000
0.3723838329315186 -3.3823390007019043 4.0226440429687500 0 255 255 0.000000
0.7585358619689941 -2.7822802066802979 3.6716110706329346 0 255 255 0.000000
0.0922304168343544 -3.8787584304809570 4.6288137435913086 0 255 255 0.000000
1.0065603256225586 -3.1073367595672607 4.1941862106323242 0 255 255 0.000000
0.0382641069591045 -4.0146346092224121 4.7193737030029297 0 255 255 0.000000
0.3727070689201355 -3.1553936004638672 3.8694972991943359 0 255 255 0.000000
0.1648777872323990 -3.6602869033813477 4.3132896423339844 0 255 255 0.000000
0.9782910943031311 -3.4761323928833008 4.4447827339172363 0 255 255 0.000000
0.9621788859367371 -3.0068397521972656 4.1453862190246582 0 255 255 0.000000
0.2495214343070984 -3.3338356018066406 4.0464696884155273 0 255 255 0.000000
0.2621240913867950 -3.3122174739837646 4.1217350959777832 0 255 255 0.000000
0.1697506606578827 -3.0959432125091553 4.0862369537353516 0 255 255 0.000000
0.2432972937822342 -3.7233848571777344 4.3993248939514160 0 255 255 0.000000
0.0380966514348984 -4.0342359542846680 5.0257673263549805 0 255 255 0.000000
0.1447685062885284 -3.0466144084930420 4.0863661766052246 0 255 255 0.000000
1.0183348655700684 -3.0415585041046143 4.2058887481689453 0 255 255 0.000000
0.9016219973564148 -3.0823752880096436 4.1261739730834961 0 255 255 0.000000
0.2757872045040131 -3.1598145961761475 3.8872647285461426 0 255 255 0.000000
0.9314494729042053 -3.7931911945343018 4.6459283828735352 0 255 255 0.000000
0.1630008816719055 -3.2840619087219238 4.1459746360778809 0 255 255 0.000000
0.2523833215236664 -3.3601100444793701 4.1921949386596680 0 255 255 0.000000
-0.0314494706690311 -4.3593392372131348 5.1032991409301758 0 255 255 0.000000
0.5308039784431458 -3.2704954147338867 4.2313599586486816 0 255 255 0.000000
0.3415650129318237 -3.3926086425781250 4.2271728515625000 0 255 255 0.000000
0.9379516839981079 -3.6716272830963135 4.4941110610961914 0 255 255 0.000000
0.8309816122055054 -4.1429114341735840 4.9857048988342285 0 255 255 0.000000
0.3487694859504700 -3.6910371780395508 4.2177672386169434 0 255 255 0.000000
0.7265441417694092 -3.1792323589324951 4.1889905929565430 0 255 255 0.000000
0.2187914550304413 -3.5571708679199219 4.3076138496398926 0 255 255 0.000000
0.9784897565841675 -3.5407629013061523 4.3303170204162598 0 255 255 0.000000
0.1472386866807938 -3.3049345016479492 3.9338498115539551 0 255 255 0.000000
0.2796401679515839 -3.7879509925842285 4.5402307510375977 0 255 255 0.000000
0.0134736541658640 -4.0789446830749512 4.8615751266479492 0 255 255 0.000000
0.3201390504837036 -3.6031703948974609 4.2883286476135254 0 255 255 0.000000
0.9953002333641052 -3.0252525806427002 4.1597609519958496 0 255 255 0.000000
0.3411298692226410 -3.5037865638732910 4.3296446800231934 0 255 255 0.000000
0.9298943281173706 -3.4594628810882568 4.2043361663818359 0 255 255 0.000000
0.8469902873039246 -3.5631225109100342 4.0804381370544434 0 255 255 0.000000
0.8836851716041565 -3.0664386749267578 4.1254181861877441 0 255 255 0.000000
0.2619976401329041 -3.7406589984893799 4.3996677398681641 0 255 255 0.000000
0.1654136478900909 -3.2087540626525879 4.1246237754821777 0 255 255 0.000000
0.9237644672393799 -3.1957790851593018 4.3499479293823242 0 255 255 0.000000
0.9558205604553223 -3.3523662090301514 4.2657942771911621 0 255 255 0.000000
0.7519592046737671 -3.0167899131774902 4.1046133041381836 0 255 255 0.000000
0.7421000599861145 -4.1257181167602539 5.1800670623779297 0 255 255 0.000000
1.0399652719497681 -0.4515638947486877 0.9667188525199890 0 255 255 0.000000
0.2255300730466843 -3.4719438552856445 4.2762169837951660 0 255 255 0.000000
0.0155601408332586 -4.0925765037536621 4.8840913772583008 0 255 255 0.000000
0.9134425520896912 -3.0448806285858154 4.1345586776733398 0 255 255 0.000000
0.7038096785545349 -3.0326492786407471 4.1816244125366211 0 255 255 0.000000
0.8871745467185974 -3.0845005512237549 4.1303591728210449 0 255 255 0.000000
0.9048409461975098 -3.1680915355682373 4.1166882514953613 0 255 255 0.000000
1.0233350992202759 -3.1337900161743164 4.2566270828247070 0 255 255 0.000000
0.5974814295768738 -2.8250753879547119 3.7943186759948730 0 255 255 0.000000
0.8387618064880371 -3.8694198131561279 4.5419077873229980 0 255 255 0.000000
0.1893494725227356 -3.1644690036773682 4.0201292037963867 0 255 255 0.000000
0.1072829365730286 -3.3520205020904541 4.1469283103942871 0 255 255 0.000000
0.3018492758274078 -3.3395304679870605 4.1515121459960938 0 255 255 0.000000
0.9215583801269531 -3.0835218429565430 4.1063389778137207 0 255 255 0.000000
0.1408778429031372 -3.5170238018035889 4.2415876388549805 0 255 255 0.000000
0.1362177580595016 -3.8905820846557617 4.6098241806030273 0 255 255 0.000000
0.9369647502899170 -3.0921807289123535 4.1201548576354980 0 255 255 0.000000
0.8540242314338684 -3.4488518238067627 4.1712341308593750 0 255 255 0.000000
0.1271568238735199 -3.3491756916046143 4.2113795280456543 0 255 255 0.000000
0.8684775829315186 -3.0845098495483398 4.0994553565979004 0 255 255 0.000000
0.9499782323837280 -3.0637550354003906 4.1093540191650391 0 255 255 0.000000
0.9104050397872925 -3.6802043914794922 4.3718090057373047 0 255 255 0.000000
0.1279710233211517 -3.2702815532684326 4.1203484535217285 0 255 255 0.000000
0.1552762091159821 -3.0829021930694580 4.0046906471252441 0 255 255 0.000000
0.9351500868797302 -3.4502987861633301 4.2693715095520020 0 255 255 0.000000
0.2161889225244522 -3.3706753253936768 4.2193942070007324 0 255 255 0.000000
0.2682350575923920 -3.3152217864990234 4.1609992980957031 0 255 255 0.000000
0.6632784605026245 -2.9801943302154541 4.1122031211853027 0 255 255 0.000000
0.2072728723287582 -3.7470855712890625 4.4201402664184570 0 255 255 0.000000
0.6336569786071777 -3.2536606788635254 4.2001304626464844 0 255 255 0.000000
0.2444286644458771 -3.4851734638214111 4.3150167465209961 0 255 255 0.000000
0.2281612902879715 -3.3395211696624756 4.1712293624877930 0 255 255 0.000000
0.8660029172897339 -3.1434969902038574 4.1049723625183105 0 255 255 0.000000
0.8819457292556763 -3.3246862888336182 4.2159657478332520 0 255 255 0.000000
0.1979161500930786 -2.9136633872985840 3.8548328876495361 0 255 255 0.000000
0.5729078054428101 -3.0809299945831299 4.0780377388000488 0 255 255 0.000000
0.9324743151664734 -3.0127234458923340 4.0847868919372559 0 255 255 0.000000
0.1165123507380486 -3.3611791133880615 4.2159762382507324 0 255 255 0.000000
0.8653784990310669 -3.0335626602172852 4.1769261360168457 0 255 255 0.000000
0.1539140343666077 -3.0665597915649414 4.0925049781799316 0 255 255 0.000000
0.8074176311492920 -3.1869039535522461 4.1676621437072754 0 255 255 0.000000
1.0017560720443726 -3.1443910598754883 4.2868714332580566 0 255 255 0.000000
0.1894083768129349 -3.4212200641632080 4.1451678276062012 0 255 255 0.000000
0.8383464217185974 -3.4116704463958740 4.2146162986755371 0 255 255 0.000000
0.2101399600505829 -3.4957199096679688 4.2664866447448730 0 255 255 0.000000
0.1450571864843369 -3.4261314868927002 4.2443475723266602 0 255 255 0.000000
0.3271650671958923 -3.8956763744354248 4.3432807922363281 0 255 255 0.000000
0.8649979233741760 -3.9636707305908203 4.7314748764038086 0 255 255 0.000000
0.1367580443620682 -3.2217557430267334 4.1212544441223145 0 255 255 0.000000
0.2410265207290649 -3.3467922210693359 4.1359372138977051 0 255 255 0.000000
0.1433189958333969 -3.4398834705352783 4.2046461105346680 0 255 255 0.000000
0.3967549204826355 -2.7608745098114014 3.6286544799804688 0 255 255 0.000000
0.8784416913986206 -3.4814105033874512 4.1951613426208496 0 255 255 0.000000
0.1496198624372482 -3.8913435935974121 4.6179847717285156 0 255 255 0.000000
0.8878326416015625 -3.4650597572326660 4.1686148643493652 0 255 255 0.000000
0.2432581782341003 -2.9104011058807373 3.4609422683715820 0 255 255 0.000000
0.2503033876419067 -3.0939903259277344 4.1022200584411621 0 255 255 0.000000
0.0842835381627083 -4.0117506980895996 4.7953062057495117 0 255 255 0.000000
0.8257303833961487 -3.1582765579223633 4.1155056953430176 0 255 255 0.000000
0.0188124775886536 -4.0532917976379395 4.8994688987731934 0 255 255 0.000000
0.9263895750045776 -3.6520490646362305 4.4481930732727051 0 255 255 0.000000
0.3475528657436371 -3.3912327289581299 4.1009416580200195 0 255 255 0.000000
0.3663307130336761 -3.4236717224121094 4.0195465087890625 0 255 255 0.000000
0.1510504931211472 -3.1267826557159424 4.0780167579650879 0 255 255 0.000000
0.7809475064277649 -4.1103186607360840 4.9234294891357422 0 255 255 0.000000
0.2119188010692596 -2.8226945400238037 3.6868610382080078 0 255 255 0.000000
0.7703904509544373 -4.2203454971313477 4.9059929847717285 0 255 255 0.000000
0.8658589720726013 -4.0204300880432129 4.7613048553466797 0 255 255 0.000000
0.9270834922790527 -3.7040364742279053 4.5733098983764648 0 255 255 0.000000
0.0288328621536493 -4.0988030433654785 4.8558659553527832 0 255 255 0.000000
0.8603395819664001 -3.4525561332702637 4.2126002311706543 0 255 255 0.000000
0.6993924379348755 -3.0162363052368164 4.1367006301879883 0 255 255 0.000000
0.7164900898933411 -3.0117127895355225 3.9484059810638428 0 255 255 0.000000
0.8497362136840820 -3.5244786739349365 4.0962481498718262 0 255 255 0.000000
0.2390501797199249 -2.8793289661407471 3.5996167659759521 0 255 255 0.000000
0.2657842636108398 -3.6396832466125488 4.3139557838439941 0 255 255 0.000000
0.2553381323814392 -3.7060234546661377 4.7054719924926758 0 255 255 0.000000
0.9701517820358276 -3.0964531898498535 4.0809488296508789 0 255 255 0.000000
0.0968860164284706 -3.3278107643127441 4.2026329040527344 0 255 255 0.000000
0.7822813987731934 -0.2825214862823486 0.7121365070343018 0 255 255 0.000000
1.0243017673492432 -3.0967316627502441 4.2209525108337402 0 255 255 0.000000
0.1360826194286346 -3.2571084499359131 4.0996637344360352 0 255 255 0.000000
0.3136127591133118 -3.1035189628601074 4.0630345344543457 0 255 255 0.000000
0.8984217643737793 -3.4815218448638916 4.2023077011108398 0 255 255 0.000000
0.0697490498423576 -4.1792645454406738 4.9266014099121094 0 255 255 0.000000
0.1359684467315674 -3.5263187885284424 4.4021463394165039 0 255 255 0.000000
0.8515114784240723 -3.5232496261596680 4.1423511505126953 0 255 255 0.000000
0.2848386764526367 -3.3371527194976807 4.1891136169433594 0 255 255 0.000000
0.1868809014558792 -3.5019989013671875 4.1189618110656738 0 255 255 0.000000
0.9974481463432312 -3.0247161388397217 4.0601334571838379 0 255 255 0.000000
0.1750420778989792 -3.0836074352264404 4.0843992233276367 0 255 255 0.000000
0.9023084044456482 -3.4430236816406250 4.1929588317871094 0 255 255 0.000000
0.9366578459739685 -3.4288332462310791 4.2509860992431641 0 255 255 0.000000
0.8992587924003601 -3.0172996520996094 4.1797809600830078 0 255 255 0.000000
-0.0478685833513737 -4.0974674224853516 5.0237517356872559 0 255 255 0.000000
0.7503914833068848 -4.1060242652893066 4.9317684173583984 0 255 255 0.000000
0.9288809895515442 -3.0253548622131348 4.0111026763916016 0 255 255 0.000000
0.2907184362411499 -3.1251604557037354 4.0721378326416016 0 255 255 0.000000
0.9775384664535522 -3.1893534660339355 4.1752333641052246 0 255 255 0.000000
1.0040643215179443 -3.4067232608795166 4.3986315727233887 0 255 255 0.000000
0.8302207589149475 -3.2836835384368896 4.1287074089050293 0 255 255 0.000000
0.9902161359786987 -3.3097963333129883 4.3249120712280273 0 255 255 0.000000
0.9171634912490845 -3.6839771270751953 4.5152630805969238 0 255 255 0.000000
0.1749016940593719 -3.1103014945983887 4.0988492965698242 0 255 255 0.000000
0.8453420996665955 -3.3971581459045410 4.2310943603515625 0 255 255 0.000000
0.3346464335918427 -3.4000480175018311 4.1623554229736328 0 255 255 0.000000
0.7241026163101196 -4.1202831268310547 4.8745369911193848 0 255 255 0.000000
0.2832476496696472 -3.0940871238708496 4.0559487342834473 0 255 255 0.000000
0.8910299539566040 -3.6505451202392578 4.3895058631896973 0 255 255 0.000000
0.8944665193557739 -3.4004771709442139 4.3032908439636230 0 255 255 0.000000
0.0271331258118153 -4.0969562530517578 4.9197812080383301 0 255 255 0.000000
0.1555049717426300 -3.0725436210632324 4.0743350982666016 0 255 255 0.000000
0.2373279184103012 -3.6554083824157715 4.3129472732543945 0 255 255 0.000000
0.9756879806518555 -3.0656826496124268 4.1389498710632324 0 255 255 0.000000
0.1317539811134338 -3.3549153804779053 4.2177634239196777 0 255 255 0.000000
0.1324203908443451 -3.2126402854919434 4.0092797279357910 0 255 255 0.000000
1.0002863407135010 -3.1419608592987061 4.1947031021118164 0 255 255 0.000000
0.7445107698440552 -3.0701622962951660 4.1708068847656250 0 255 255 0.000000
0.0008876674692146 -4.1251697540283203 4.9312987327575684 0 255 255 0.000000
0.0180092081427574 -4.0727200508117676 4.8534755706787109 0 255 255 0.000000
0.1754002720117569 -3.6309211254119873 4.2816109657287598 0 255 255 0.000000
0.8781033754348755 -0.4068340361118317 1.0086989402770996 0 255 255 0.000000
0.9171961545944214 -3.0600929260253906 4.0799994468688965 0 255 255 0.000000
0.2785052061080933 -3.5705761909484863 4.3181447982788086 0 255 255 0.000000
0.8868041634559631 -3.4620139598846436 4.2116203308105469 0 255 255 0.000000
0.8550133705139160 -3.4426765441894531 4.2255935668945313 0 255 255 0.000000
0.0590072125196457 -3.9047834873199463 4.5764718055725098 0 255 255 0.000000
0.3436089158058167 -3.4360847473144531 4.0831031799316406 0 255 255 0.000000
0.9297136068344116 -3.0728025436401367 4.0652046203613281 0 255 255 0.000000
0.5639015436172485 -3.0830912590026855 4.0861172676086426 0 255 255 0.000000
0.8134959936141968 -4.1348552703857422 4.9372825622558594 0 255 255 0.000000
0.3304461240768433 -3.6372342109680176 4.2445907592773438 0 255 255 0.000000
0.1572878956794739 -3.9080395698547363 4.7338223457336426 0 255 255 0.000000
0.2999003529548645 -2.9129943847656250 3.5911753177642822 0 255 255 0.000000
0.9177293777465820 -3.0406544208526611 4.0969605445861816 0 255 255 0.000000
0.2023675143718719 -3.1772930622100830 4.1011962890625000 0 255 255 0.000000
0.0659903883934021 -3.7404706478118896 4.4029479026794434 0 255 255 0.000000
0.8572214245796204 -2.9507696628570557 4.0907096862792969 0 255 255 0.000000
0.9266888499259949 -3.0760827064514160 4.1198420524597168 0 255 255 0.000000
0.2941792309284210 -3.2621257305145264 4.1407723426818848 0 255 255 0.000000
0.9129220247268677 -3.3312008380889893 4.2212147712707520 0 255 255 0.000000
0.4891234338283539 -2.9963405132293701 4.0096602439880371 0 255 255 0.000000
0.8776224851608276 -3.0281064510345459 4.1636109352111816 0 255 255 0.000000
0.1799824833869934 -3.8000171184539795 4.5192284584045410 0 255 255 0.000000
0.1161132007837296 -3.7097201347351074 4.3612818717956543 0 255 255 0.000000
0.9541286826133728 -3.3959405422210693 4.2911510467529297 0 255 255 0.000000
0.7401194572448730 -2.2919499874114990 3.1376097202301025 0 255 255 0.000000
1.0076849460601807 -3.0931222438812256 4.1348767280578613 0 255 255 0.000000
0.8548955321311951 -0.4201177060604095 0.8590001463890076 0 255 255 0.000000
0.2279402166604996 -3.4157984256744385 4.2349333763122559 0 255 255 0.000000
0.3165214061737061 -3.4735901355743408 4.2244458198547363 0 255 255 0.000000
0.8128277063369751 -3.2649290561676025 4.2368927001953125 0 255 255 0.000000
0.6143797636032104 -2.9901704788208008 4.0336236953735352 0 255 255 0.000000
0.9152270555496216 -3.1373887062072754 4.0286211967468262 0 255 255 0.000000
0.9651532769203186 -3.3907034397125244 4.4032869338989258 0 255 255 0.000000
0.7239245176315308 -3.1206920146942139 4.1360487937927246 0 255 255 0.000000
0.3569262921810150 -3.4060418605804443 4.1161813735961914 0 255 255 0.000000
0.1986340880393982 -4.0142445564270020 4.7883086204528809 0 255 255 0.000000
0.0962214767932892 -4.0724205970764160 4.9436173439025879 0 255 255 0.000000
0.2401277720928192 -3.2507557868957520 4.1288213729858398 0 255 255 0.000000
0.6532962918281555 -3.0343334674835205 4.1266350746154785 0 255 255 0.000000
0.8837144970893860 -3.0395288467407227 4.1362662315368652 0 255 255 0.000000
0.3954820632934570 -2.9749140739440918 4.0191779136657715 0 255 255 0.000000
0.9456216096878052 -3.2041401863098145 3.8071079254150391 0 255 255 0.000000
1.0038204193115234 -3.2594830989837646 4.3660373687744141 0 255 255 0.000000
0.1532345563173294 -3.2604990005493164 4.3484940528869629 0 255 255 0.000000
0.9484634995460510 -3.4515676498413086 4.3260235786437988 0 255 255 0.000000
0.1845671683549881 -3.8559546470642090 4.5382919311523438 0 255 255 0.000000
0.6094664335250854 -3.0977196693420410 4.0748543739318848 0 255 255 0.000000
0.2599712610244751 -3.7946727275848389 4.5434379577636719 0 255 255 0.000000
0.2758881449699402 -3.8500297069549561 4.5128293037414551 0 255 255 0.000000
1.0108258724212646 -3.2099733352661133 4.1758284568786621 0 255 255 0.000000
0.8778200745582581 -3.4829406738281250 4.1739902496337891 0 255 255 0.000000
0.1721498966217041 -4.0625839233398438 4.9583196640014648 0 255 255 0.000000
0.7186995148658752 -3.1327965259552002 4.1310653686523438 0 255 255 0.000000
0.2016186714172363 -4.0682978630065918 4.8261871337890625 0 255 255 0.000000
0.2579054534435272 -3.7715320587158203 4.4977555274963379 0 255 255 0.000000
1.0068432092666626 -3.0988147258758545 4.1912074089050293 0 255 255 0.000000
0.8053487539291382 -0.2478581815958023 0.7442417144775391 0 255 255 0.000000
0.7596026062965393 -3.0219523906707764 4.1297507286071777 0 255 255 0.000000
0.7215157747268677 -3.0197167396545410 4.0106382369995117 0 255 255 0.000000
0.8656971454620361 -2.8597354888916016 3.8349840641021729 0 255 255 0.000000
0.8879626393318176 -3.6501765251159668 4.3877654075622559 0 255 255 0.000000
0.7305893898010254 -3.0390226840972900 4.1073427200317383 0 255 255 0.000000
0.1713650822639465 -4.1908445358276367 5.0109124183654785 0 255 255 0.000000
0.2316569089889526 -3.4009988307952881 4.2363247871398926 0 255 255 0.000000
0.8561801910400391 -4.0127024650573730 4.7946405410766602 0 255 255 0.000000
0.1298681348562241 -3.1899955272674561 4.0442256927490234 0 255 255 0.000000
0.3428395092487335 -3.4761891365051270 4.1411581039428711 0 255 255 0.000000
0.8562010526657104 -3.4735753536224365 4.0672373771667480 0 255 255 0.000000
0.7768760323524475 -0.3916968405246735 0.9070778489112854 0 255 255 0.000000
0.7287699580192566 -3.0320758819580078 4.1300439834594727 0 255 255 0.000000
0.7272073626518250 -4.2207651138305664 5.2844209671020508 0 255 255 0.000000
0.9309499263763428 -3.4538137912750244 4.2475638389587402 0 255 255 0.000000
0.9369219541549683 -3.6633591651916504 4.5033760070800781 0 255 255 0.000000
0.9823256731033325 -3.2403988838195801 4.0086197853088379 0 255 255 0.000000
0.0114121129736304 -4.1404662132263184 4.8815984725952148 0 255 255 0.000000
0.3123809099197388 -3.3802628517150879 3.9693272113800049 0 255 255 0.000000
0.9825571775436401 -3.2824079990386963 4.2600131034851074 0 255 255 0.000000
0.2911173701286316 -3.3315913677215576 4.1945776939392090 0 255 255 0.000000
0.9989259839057922 -0.4188808798789978 1.0515445470809937 0 255 255 0.000000
0.3510502576828003 -3.5425128936767578 4.1468319892883301 0 255 255 0.000000
0.9277102947235107 -3.6576948165893555 4.4684600830078125 0 255 255 0.000000
0.8380811810493469 -3.0666389465332031 4.1170101165771484 0 255 255 0.000000
0.0649228245019913 -3.7074482440948486 4.3934578895568848 0 255 255 0.000000
0.3492041528224945 -3.4781119823455811 4.1494808197021484 0 255 255 0.000000
0.8504621982574463 -3.0449757575988770 4.1270275115966797 0 255 255 0.000000
0.9132561087608337 -3.0621333122253418 4.1135005950927734 0 255 255 0.000000
0.9489377140998840 -3.4758727550506592 4.3150725364685059 0 255 255 0.000000
0.8310402035713196 -3.4090869426727295 4.2891530990600586 0 255 255 0.000000
0.2442869096994400 -3.0645017623901367 3.6224699020385742 0 255 255 0.000000
0.9404233098030090 -3.4796214103698730 4.3522462844848633 0 255 255 0.000000
0.1482807844877243 -3.4095070362091064 4.2630181312561035 0 255 255 0.000000
0.8455798625946045 -4.0676021575927734 4.8932132720947266 0 255 255 0.000000
0.9969943761825562 -3.0730812549591064 4.2086286544799805 0 255 255 0.000000
1.8280730247497559 0.6094517707824707 -0.2061998844146729 0 255 255 0.000000
0.8572006821632385 -3.4354093074798584 4.2316260337829590 0 255 255 0.000000
0.8506323099136353 -3.4664068222045898 4.1458544731140137 0 255 255 0.000000
0.3866789638996124 -2.6221368312835693 3.2051994800567627 0 255 255 0.000000
0.9805768728256226 -3.2846643924713135 4.3207688331604004 0 255 255 0.000000
0.8585498332977295 -4.1272349357604980 5.0983805656433105 0 255 255 0.000000
0.1083294376730919 -3.3588943481445313 4.2147979736328125 0 255 255 0.000000
0.9875724315643311 -3.3719198703765869 4.3339056968688965 0 255 255 0.000000
0.7358147501945496 -0.5965312719345093 0.9268453717231750 0 255 255 0.000000
0.7632263898849487 -4.0127210617065430 4.6619515419006348 0 255 255 0.000000
0.2215253561735153 -4.1922807693481445 4.7838029861450195 0 255 255 0.000000
0.8143061995506287 -3.7985405921936035 4.3834023475646973 0 255 255 0.000000
1.0239661931991577 -2.9834966659545898 4.1163721084594727 0 255 255 0.000000
0.8776916861534119 -3.3857846260070801 4.0477433204650879 0 255 255 0.000000
0.9328384399414063 -3.0485496520996094 4.1316208839416504 0 255 255 0.000000
0.9846574664115906 -3.0933480262756348 4.1567530632019043 0 255 255 0.000000
0.9069656133651733 -3.8018064498901367 4.5970792770385742 0 255 255 0.000000
0.9816999435424805 -2.8742799758911133 3.9905726909637451 0 255 255 0.000000
0.9313971400260925 -3.7099118232727051 4.4771161079406738 0 255 255 0.000000
0.9697346091270447 -3.1836087703704834 4.2133235931396484 0 255 255 0.000000
0.9013118147850037 -3.4850122928619385 4.2160348892211914 0 255 255 0.000000
0.1548686921596527 -3.9806425571441650 4.6813383102416992 0 255 255 0.000000
0.9142696857452393 -3.4336850643157959 4.2813353538513184 0 255 255 0.000000
0.9182581305503845 -3.7499229907989502 4.5959286689758301 0 255 255 0.000000
0.9391613006591797 -3.7928028106689453 4.6293878555297852 0 255 255 0.000000
0.8705062270164490 -3.4677064418792725 4.1720590591430664 0 255 255 0.000000
0.9699391126632690 -3.4131388664245605 4.3606023788452148 0 255 255 0.000000
0.2820590436458588 -3.8075578212738037 4.5284314155578613 0 255 255 0.000000
0.9725763797760010 -3.3133471012115479 4.2268838882446289 0 255 255 0.000000
0.2676222622394562 -3.7699639797210693 4.5264081954956055 0 255 255 0.000000
0.8450915217399597 -3.3325328826904297 4.1354489326477051 0 255 255 0.000000
0.1554351598024368 -3.4303479194641113 4.2520956993103027 0 255 255 0.000000
0.8377869725227356 -3.8663344383239746 4.6323246955871582 0 255 255 0.000000
0.9835931658744812 -3.4572858810424805 4.3390822410583496 0 255 255 0.000000
0.9905140995979309 -3.2690165042877197 4.3064484596252441 0 255 255 0.000000
0.7858420014381409 -3.7844359874725342 4.4662227630615234 0 255 255 0.000000
0.9971179366111755 -3.4273986816406250 4.3829088211059570 0 255 255 0.000000
0.9951688051223755 -3.2230248451232910 4.3363471031188965 0 255 255 0.000000
0.9166995882987976 -3.4559130668640137 4.2167086601257324 0 255 255 0.000000
1.1464731693267822 -0.3583249151706696 0.9979625344276428 0 255 255 0.000000
0.4442803561687469 -3.2218987941741943 4.1236968040466309 0 255 255 0.000000
0.8615162372589111 -3.6355335712432861 4.3690848350524902 0 255 255 0.000000
0.7717942595481873 -4.1402950286865234 4.9376640319824219 0 255 255 0.000000
0.8535692691802979 -3.6662015914916992 4.3425369262695313 0 255 255 0.000000
0.9963580369949341 -3.1015951633453369 4.2028927803039551 0 255 255 0.000000
0.9789270162582397 -3.0585820674896240 4.1206126213073730 0 255 255 0.000000
0.0575107745826244 -3.7928068637847900 4.4927310943603516 0 255 255 0.000000
0.9139231443405151 -3.1686575412750244 4.0941586494445801 0 255 255 0.000000
0.2037573307752609 -3.7769114971160889 4.5590119361877441 0 255 255 0.000000
0.3166849017143250 -3.2218103408813477 4.0197377204895020 0 255 255 0.000000
1.0087637901306152 -3.1582071781158447 4.2650570869445801 0 255 255 0.000000
0.5633125901222229 -3.0752077102661133 4.0961561203002930 0 255 255 0.000000
0.2587644159793854 -3.6032145023345947 4.3250770568847656 0 255 255 0.000000
0.8378795981407166 -3.3501019477844238 4.1646766662597656 0 255 255 0.000000
0.9672316908836365 -3.1222271919250488 4.1091542243957520 0 255 255 0.000000
0.8958328366279602 -3.4659035205841064 4.1858263015747070 0 255 255 0.000000
0.9374449849128723 -3.6494278907775879 4.5174870491027832 0 255 255 0.000000
0.1883243620395660 -4.0548639297485352 4.8127274513244629 0 255 255 0.000000
0.0149698145687580 -4.0638833045959473 4.7479085922241211 0 255 255 0.000000
1.0038008689880371 -3.1371695995330811 4.1449117660522461 0 255 255 0.000000
0.8207053542137146 -3.2695741653442383 4.2275738716125488 0 255 255 0.000000
0.8340120315551758 -3.5413529872894287 4.3985257148742676 0 255 255 0.000000
0.9975002408027649 -3.1664457321166992 4.3101086616516113 0 255 255 0.000000
0.9495711922645569 -0.4548711478710175 0.9801139831542969 0 255 255 0.000000
0.1458939164876938 -3.6228079795837402 4.2835435867309570 0 255 255 0.000000
0.9273945689201355 -3.0787265300750732 4.0635786056518555 0 255 255 0.000000
0.3136712610721588 -3.3165919780731201 4.1957907676696777 0 255 255 0.000000
0.7344215512275696 -3.0050356388092041 4.1219635009765625 0 255 255 0.000000
0.8514425158500671 -3.9514808654785156 4.7284541130065918 0 255 255 0.000000
1.0100245475769043 -3.0881412029266357 4.1591029167175293 0 255 255 0.000000
0.2264641672372818 -3.5100135803222656 4.2775249481201172 0 255 255 0.000000
0.9461714625358582 -3.6517095565795898 4.4960947036743164 0 255 255 0.000000
0.9687708616256714 -3.4774715900421143 4.3621363639831543 0 255 255 0.000000
0.3706481456756592 -3.4885270595550537 4.5547437667846680 0 255 255 0.000000
0.9244310259819031 -0.3763307631015778 0.8762887120246887 0 255 255 0.000000
0.5534344911575317 -3.0919008255004883 4.0807189941406250 0 255 255 0.000000
0.9951471090316772 -3.1852319240570068 4.2369303703308105 0 255 255 0.000000
0.9116224050521851 -0.3818929195404053 0.9015343189239502 0 255 255 0.000000
0.9121517539024353 -0.4705457985401154 0.9495761990547180 0 255 255 0.000000
0.9943985342979431 -3.1734440326690674 4.2203717231750488 0 255 255 0.000000
0.6383054852485657 -2.9157423973083496 4.0263028144836426 0 255 255 0.000000
1.0019623041152954 -3.1456923484802246 4.2524399757385254 0 255 255 0.000000
0.9400019645690918 -0.3314555585384369 0.9381743669509888 0 255 255 0.000000
0.9607397913932800 -3.3611636161804199 4.3162307739257813 0 255 255 0.000000
-0.0002349051937927 -4.0859642028808594 4.8088049888610840 0 255 255 0.000000
0.9841982126235962 -3.5084583759307861 4.5083885192871094 0 255 255 0.000000
0.8219659924507141 -3.5633866786956787 4.2693572044372559 0 255 255 0.000000
0.8294007778167725 -3.5637657642364502 4.2819366455078125 0 255 255 0.000000
0.7668308615684509 -3.0398528575897217 4.1048722267150879 0 255 255 0.000000
0.8267495036125183 -3.0970289707183838 4.1020536422729492 0 255 255 0.000000
0.8502008318901062 -3.4098091125488281 4.1472816467285156 0 255 255 0.000000
0.8678504228591919 -3.4976737499237061 4.1406908035278320 0 255 255 0.000000
1.0088567733764648 -3.0644354820251465 4.1375989913940430 0 255 255 0.000000
0.7185388803482056 -2.9631710052490234 3.9696128368377686 0 255 255 0.000000
1.2108352184295654 -0.3881241381168365 1.0378707647323608 0 255 255 0.000000
0.9412065148353577 -3.5506973266601563 4.4223203659057617 0 255 255 0.000000
0.8701055645942688 -3.5193855762481689 4.2619252204895020 0 255 255 0.000000
0.8368977904319763 -3.0372471809387207 4.1532077789306641 0 255 255 0.000000
0.9740652441978455 -3.0609858036041260 4.1338758468627930 0 255 255 0.000000
0.8922543525695801 -3.4740397930145264 4.1898846626281738 0 255 255 0.000000
0.7791323065757751 -3.8563127517700195 4.6603221893310547 0 255 255 0.000000
0.9349598884582520 -3.0637228488922119 4.1195163726806641 0 255 255 0.000000
0.3968405425548553 -2.8949017524719238 3.8581249713897705 0 255 255 0.000000
0.4717493057250977 -3.1050367355346680 4.0470161437988281 0 255 255 0.000000
0.8258113265037537 -3.5655896663665771 4.2851276397705078 0 255 255 0.000000
0.9591237306594849 -3.0641553401947021 4.1041378974914551 0 255 255 0.000000
1.0040980577468872 -3.0871489048004150 4.1248769760131836 0 255 255 0.000000
0.9436783790588379 -3.3163790702819824 4.2667121887207031 0 255 255 0.000000
0.9480549097061157 -3.0441131591796875 4.1397132873535156 0 255 255 0.000000
0.4598520696163177 -3.1464400291442871 4.1226601600646973 0 255 255 0.000000
0.9006562232971191 -3.7555928230285645 4.4841179847717285 0 255 255 0.000000
0.9063054323196411 -3.4865424633026123 4.3105587959289551 0 255 255 0.000000
0.8875393271446228 -3.4224965572357178 4.3455033302307129 0 255 255 0.000000
0.9113852381706238 -3.3030836582183838 4.1998710632324219 0 255 255 0.000000
0.3235782384872437 -3.1011273860931396 4.0473456382751465 0 255 255 0.000000
0.8707174062728882 -3.4842960834503174 4.1676177978515625 0 255 255 0.000000
0.9902226328849792 -3.2156729698181152 4.3152918815612793 0 255 255 0.000000
1.0009661912918091 -3.3162331581115723 4.3266291618347168 0 255 255 0.000000
0.8546984791755676 -3.4828312397003174 4.1652541160583496 0 255 255 0.000000
0.3864870965480804 -3.2884426116943359 4.1272721290588379 0 255 255 0.000000
0.4441493749618530 -3.0874550342559814 4.0593056678771973 0 255 255 0.000000
0.8978961110115051 -3.1921296119689941 4.1502904891967773 0 255 255 0.000000
0.9272680282592773 -3.0745389461517334 4.1086087226867676 0 255 255 0.000000
0.6111449599266052 -3.0083944797515869 4.1346054077148438 0 255 255 0.000000
0.4206493496894836 -3.1113321781158447 4.0687313079833984 0 255 255 0.000000
0.3248465061187744 -3.0651972293853760 3.9910662174224854 0 255 255 0.000000
0.7151052355766296 -3.1080100536346436 4.1077985763549805 0 255 255 0.000000
0.8423718214035034 -3.0947711467742920 4.1338157653808594 0 255 255 0.000000
0.9378708004951477 -3.0775916576385498 4.1099815368652344 0 255 255 0.000000
0.9270755052566528 -3.4084107875823975 4.2726430892944336 0 255 255 0.000000
0.8436149358749390 -3.1229467391967773 4.1297678947448730 0 255 255 0.000000
0.2950423657894135 -3.7027297019958496 4.3499264717102051 0 255 255 0.000000
0.6551252007484436 -3.3168396949768066 4.2916002273559570 0 255 255 0.000000
0.8117030858993530 -4.0053982734680176 4.7271943092346191 0 255 255 0.000000
0.0495853163301945 -3.7493572235107422 4.4631533622741699 0 255 255 0.000000
0.9871264100074768 -3.2963728904724121 4.3574724197387695 0 255 255 0.000000
0.1042041927576065 -3.7120797634124756 4.4106726646423340 0 255 255 0.000000
0.2332262843847275 -3.6731920242309570 4.3133149147033691 0 255 255 0.000000
0.9872818589210510 -3.0786178112030029 4.1368489265441895 0 255 255 0.000000
0.1173192337155342 -3.5865452289581299 4.2544684410095215 0 255 255 0.000000
0.2353199124336243 -3.8323559761047363 4.5635328292846680 0 255 255 0.000000
0.9205788373947144 -3.0549209117889404 3.8605659008026123 0 255 255 0.000000
0.1411282420158386 -3.5103607177734375 4.2436666488647461 0 255 255 0.000000
0.2876886427402496 -3.0642073154449463 4.0888428688049316 0 255 255 0.000000
0.9173921346664429 -3.0318732261657715 4.1517548561096191 0 255 255 0.000000
1.0023722648620605 -3.0311894416809082 4.1857709884643555 0 255 255 0.000000
0.2938444614410400 -3.3459215164184570 4.1138739585876465 0 255 255 0.000000
0.7180498242378235 -2.9970719814300537 3.9687626361846924 0 255 255 0.000000
0.3013997673988342 -3.3962972164154053 4.1602964401245117 0 255 255 0.000000
0.2733248174190521 -3.5319805145263672 4.2387099266052246 0 255 255 0.000000
0.1211702302098274 -3.6144604682922363 4.2199130058288574 0 255 255 0.000000
0.1196211948990822 -3.7277212142944336 4.4472160339355469 0 255 255 0.000000
0.1783560514450073 -3.2663087844848633 4.1563606262207031 0 255 255 0.000000
0.1715915203094482 -3.6394977569580078 4.2320322990417480 0 255 255 0.000000
0.9941872358322144 -3.2874414920806885 4.3678164482116699 0 255 255 0.000000
0.3029036819934845 -3.5348916053771973 4.2912859916687012 0 255 255 0.000000
0.0952693521976471 -3.7825200557708740 4.5119543075561523 0 255 255 0.000000
0.2041006386280060 -3.3944621086120605 4.2443246841430664 0 255 255 0.000000
0.1321901530027390 -3.5355081558227539 4.2402091026306152 0 255 255 0.000000
0.0549777075648308 -4.0699186325073242 5.0966820716857910 0 255 255 0.000000
0.2931368052959442 -3.4364156723022461 4.2190618515014648 0 255 255 0.000000
0.0643935725092888 -4.0149827003479004 5.0934615135192871 0 255 255 0.000000
0.3054173886775970 -3.2567241191864014 4.1179418563842773 0 255 255 0.000000
0.3356190919876099 -3.3956749439239502 4.1878261566162109 0 255 255 0.000000
0.2307686060667038 -3.3481302261352539 4.1946363449096680 0 255 255 0.000000
0.1119604259729385 -3.5957531929016113 4.2162933349609375 0 255 255 0.000000
0.3560672104358673 -3.4185979366302490 4.1143064498901367 0 255 255 0.000000
0.1238401755690575 -3.3203320503234863 3.9929759502410889 0 255 255 0.000000
0.1569636315107346 -3.7734444141387939 4.5007085800170898 0 255 255 0.000000
0.9357830882072449 -3.5955021381378174 4.3209629058837891 0 255 255 0.000000
0.2574951350688934 -3.9640469551086426 4.6120991706848145 0 255 255 0.000000
0.5339987874031067 -4.2825827598571777 5.4382457733154297 0 255 255 0.000000
0.1706563532352448 -3.7617032527923584 4.6082901954650879 0 255 255 0.000000
0.0526017285883427 -3.8665468692779541 4.5332045555114746 0 255 255 0.000000
0.8610858917236328 -3.5363030433654785 4.2221951484680176 0 255 255 0.000000
0.7904039025306702 -3.8822412490844727 4.7215471267700195 0 255 255 0.000000
0.2836179435253143 -3.7033267021179199 4.4316787719726563 0 255 255 0.000000
0.1089851036667824 -3.8586602210998535 4.5664563179016113 0 255 255 0.000000
0.7478693723678589 -3.1065855026245117 4.1008338928222656 0 255 255 0.000000
0.7581850886344910 -4.1506109237670898 4.9651923179626465 0 255 255 0.000000
-0.0068538454361260 -3.9437892436981201 4.6952261924743652 0 255 255 0.000000
0.2101213186979294 -3.2639644145965576 4.1611032485961914 0 255 255 0.000000
0.8816320300102234 -3.4914364814758301 4.2078156471252441 0 255 255 0.000000
0.9805325865745544 -3.2302637100219727 4.1678705215454102 0 255 255 0.000000
0.2429938763380051 -3.3156118392944336 4.1556138992309570 0 255 255 0.000000
0.0465015284717083 -4.0978460311889648 4.7720193862915039 0 255 255 0.000000
0.7657290101051331 -3.9548528194427490 4.5328764915466309 0 255 255 0.000000
0.8540109395980835 -4.0683884620666504 5.0170850753784180 0 255 255 0.000000
0.4693436324596405 -2.9656159877777100 3.5846736431121826 0 255 255 0.000000
0.9217623472213745 -3.6882596015930176 4.4672513008117676 0 255 255 0.000000
0.2510120570659637 -3.8207716941833496 4.5642027854919434 0 255 255 0.000000
0.9032217264175415 -3.8986208438873291 4.7328886985778809 0 255 255 0.000000
0.3677456378936768 -3.3952701091766357 4.1216979026794434 0 255 255 0.000000
0.0767538622021675 -4.2127542495727539 5.4663252830505371 0 255 255 0.000000
0.2520079314708710 -3.2392716407775879 4.0220623016357422 0 255 255 0.000000
0.3598336279392242 -3.4522945880889893 4.0962128639221191 0 255 255 0.000000
0.1535850316286087 -3.3328371047973633 4.3193755149841309 0 255 255 0.000000
0.9675199985504150 -2.9596860408782959 4.1020889282226563 0 255 255 0.000000
0.1469566076993942 -3.4852750301361084 4.2344288825988770 0 255 255 0.000000
0.1924531757831573 -3.2383942604064941 4.1388220787048340 0 255 255 0.000000
0.9250560998916626 -3.1603181362152100 4.1418151855468750 0 255 255 0.000000
0.3842801749706268 -3.0988359451293945 4.0514593124389648 0 255 255 0.000000
0.1464568674564362 -3.1808385848999023 4.1118636131286621 0 255 255 0.000000
0.1495997756719589 -3.1613993644714355 4.0165538787841797 0 255 255 0.000000
0.2026922851800919 -3.1286468505859375 4.0016942024230957 0 255 255 0.000000
0.2954107224941254 -3.5198044776916504 4.3044505119323730 0 255 255 0.000000
0.1531201899051666 -3.2362437248229980 4.1375799179077148 0 255 255 0.000000
0.2500631213188171 -3.2916994094848633 4.1186857223510742 0 255 255 0.000000
0.0959041640162468 -3.7039265632629395 4.3953156471252441 0 255 255 0.000000
0.1636866033077240 -3.6370444297790527 4.2742366790771484 0 255 255 0.000000
-0.0800611227750778 -4.2021937370300293 5.3257403373718262 0 255 255 0.000000
0.2358086258172989 -3.5172302722930908 4.1856741905212402 0 255 255 0.000000
0.0427867323160172 -3.8072285652160645 4.5280160903930664 0 255 255 0.000000
0.8973376750946045 -3.4961187839508057 4.2313780784606934 0 255 255 0.000000
0.2774372696876526 -3.0923418998718262 4.0564408302307129 0 255 255 0.000000
0.7973067760467529 -2.9951903820037842 4.1332974433898926 0 255 255 0.000000
0.1567734181880951 -3.2597289085388184 4.1588306427001953 0 255 255 0.000000
0.1550949960947037 -3.1622724533081055 4.0956492424011230 0 255 255 0.000000
0.1259261816740036 -3.2379860877990723 4.0308747291564941 0 255 255 0.000000
0.1467646807432175 -3.1901297569274902 4.0389971733093262 0 255 255 0.000000
0.1326427459716797 -3.2034883499145508 4.1026635169982910 0 255 255 0.000000
0.1673664748668671 -3.1607704162597656 4.0994849205017090 0 255 255 0.000000
0.9991190433502197 -3.0001842975616455 4.1221227645874023 0 255 255 0.000000
0.1587328165769577 -3.1017427444458008 4.0618724822998047 0 255 255 0.000000
0.1229795739054680 -3.6699421405792236 4.3217492103576660 0 255 255 0.000000
0.2698425054550171 -3.4512825012207031 4.2395153045654297 0 255 255 0.000000
0.1295134723186493 -3.2758131027221680 4.1256785392761230 0 255 255 0.000000
0.1587461829185486 -3.0810325145721436 4.0718317031860352 0 255 255 0.000000
0.3263422846794128 -3.1563565731048584 4.0780405998229980 0 255 255 0.000000
0.3735857307910919 -3.0896902084350586 4.0435781478881836 0 255 255 0.000000
0.4181001186370850 -3.0084857940673828 3.5467410087585449 0 255 255 0.000000
0.1564542651176453 -3.1680221557617188 3.8333566188812256 0 255 255 0.000000
0.2339053899049759 -3.2621185779571533 4.1266913414001465 0 255 255 0.000000
0.8526119589805603 -3.4178974628448486 4.5614609718322754 0 255 255 0.000000
0.1698576807975769 -3.7061142921447754 4.3670310974121094 0 255 255 0.000000
0.1723838150501251 -3.1175038814544678 3.7640666961669922 0 255 255 0.000000
0.2661152184009552 -3.7168188095092773 4.3836894035339355 0 255 255 0.000000
0.1988613456487656 -3.7554206848144531 4.4885282516479492 0 255 255 0.000000
0.9289828538894653 -3.2793412208557129 4.3117551803588867 0 255 255 0.000000
1.7290508747100830 0.5787825584411621 -0.1329381912946701 0 255 255 0.000000
0.2296360433101654 -3.2129848003387451 4.0367593765258789 0 255 255 0.000000
0.9892719388008118 -3.2069034576416016 4.2206950187683105 0 255 255 0.000000
0.2976227700710297 -3.7039167881011963 4.4052376747131348 0 255 255 0.000000
0.1785483509302139 -3.3415925502777100 4.2098841667175293 0 255 255 0.000000
0.3801942765712738 -3.1090757846832275 4.0410676002502441 0 255 255 0.000000
0.1832863092422485 -3.0598118305206299 4.0778727531433105 0 255 255 0.000000
0.2155750840902328 -3.2960083484649658 4.2054438591003418 0 255 255 0.000000
0.1337735354900360 -3.7113952636718750 4.4634213447570801 0 255 255 0.000000
0.8561147451400757 -3.4483742713928223 4.1640386581420898 0 255 255 0.000000
0.7372095584869385 -4.0562858581542969 4.8333339691162109 0 255 255 0.000000
-0.0201096944510937 -3.9816310405731201 4.8946242332458496 0 255 255 0.000000
1.0643638372421265 0.2932360470294952 0.0967343002557755 0 255 255 0.000000
0.1778750419616699 -3.0784640312194824 3.7404794692993164 0 255 255 0.000000
0.1678507775068283 -3.3862960338592529 4.2498354911804199 0 255 255 0.000000
1.1609258651733398 0.2206163704395294 -0.0380184054374695 0 255 255 0.000000
0.1268959194421768 -3.5149176120758057 4.2312378883361816 0 255 255 0.000000
1.1095340251922607 0.1077329218387604 0.0948647260665894 0 255 255 0.000000
0.1610223799943924 -3.1799583435058594 4.1208558082580566 0 255 255 0.000000
0.2011600434780121 -3.0590670108795166 4.0479745864868164 0 255 255 0.000000
0.2373250275850296 -3.7983531951904297 4.4954104423522949 0 255 255 0.000000
1.5947705507278442 -0.3244591951370239 0.3455348014831543 0 255 255 0.000000
0.1556181907653809 -3.3117704391479492 4.1897497177124023 0 255 255 0.000000
0.1754805594682693 -3.5605025291442871 4.4989070892333984 0 255 255 0.000000
0.1517477631568909 -3.7265179157257080 4.4029989242553711 0 255 255 0.000000
0.0549919269979000 -3.8986072540283203 4.6043057441711426 0 255 255 0.000000
0.2699663043022156 -3.1334764957427979 4.0818400382995605 0 255 255 0.000000
0.0473242141306400 -3.8284103870391846 4.5289678573608398 0 255 255 0.000000
0.1173942387104034 -3.3492832183837891 4.0230317115783691 0 255 255 0.000000
0.2259275019168854 -3.7856278419494629 4.4354529380798340 0 255 255 0.000000
1.0173140764236450 -3.1813154220581055 4.3003644943237305 0 255 255 0.000000
0.9138072133064270 -3.0864262580871582 3.9970240592956543 0 255 255 0.000000
0.2121281325817108 -3.4094710350036621 4.2856836318969727 0 255 255 0.000000
0.8654077649116516 -3.4772579669952393 4.1539788246154785 0 255 255 0.000000
1.1415197849273682 0.1572236418724060 0.0155631285160780 0 255 255 0.000000
0.1983250081539154 -3.1152057647705078 4.0671615600585938 0 255 255 0.000000
0.3041663467884064 -3.3227298259735107 4.1630210876464844 0 255 255 0.000000
0.4301446676254272 -3.0404145717620850 4.1157555580139160 0 255 255 0.000000
0.1108246520161629 -3.2808995246887207 4.1471076011657715 0 255 255 0.000000
0.1973898410797119 -3.3480308055877686 4.1982250213623047 0 255 255 0.000000
0.2735925316810608 -3.0670959949493408 4.0709891319274902 0 255 255 0.000000
0.1907887011766434 -3.4349429607391357 4.2510919570922852 0 255 255 0.000000
0.1939847618341446 -3.5415399074554443 4.3311090469360352 0 255 255 0.000000
0.1271120011806488 -3.3304998874664307 4.2104177474975586 0 255 255 0.000000
0.9718297123908997 -3.3878180980682373 4.3109741210937500 0 255 255 0.000000
1.0003122091293335 -3.3256461620330811 4.3062100410461426 0 255 255 0.000000
0.9244167804718018 -3.1267700195312500 4.1771211624145508 0 255 255 0.000000
0.8680029511451721 -2.9840621948242188 4.0288896560668945 0 255 255 0.000000
0.2785296440124512 -2.9472148418426514 3.9550528526306152 0 255 255 0.000000
0.4409511089324951 -2.9967794418334961 3.9611840248107910 0 255 255 0.000000
0.2281787395477295 -3.5492365360260010 4.2994709014892578 0 255 255 0.000000
0.8682637810707092 -3.0231864452362061 4.0034489631652832 0 255 255 0.000000
0.9289054870605469 -3.2938055992126465 4.3657059669494629 0 255 255 0.000000
0.1820582002401352 -3.1371154785156250 4.0675787925720215 0 255 255 0.000000
0.1694404035806656 -3.2919793128967285 3.8702666759490967 0 255 255 0.000000
0.6170352697372437 -3.0023579597473145 4.0987939834594727 0 255 255 0.000000
0.1210651621222496 -3.3074219226837158 4.1869778633117676 0 255 255 0.000000
0.9526210427284241 -3.5066151618957520 4.3727841377258301 0 255 255 0.000000
0.2391907870769501 -3.2944467067718506 4.1950020790100098 0 255 255 0.000000
0.3082877695560455 -3.6110093593597412 4.2429370880126953 0 255 255 0.000000
0.3319250941276550 -3.0380773544311523 4.0535097122192383 0 255 255 0.000000
